ply
format ascii 1.0
element vertex 849
property double x
property double y
property double z
end_header
20.477637803317471 25.418450564051515 1.123516807198658
29.536653703703706 25.606700823045269 1.247774382716049
-20.765356062863244 26.170377719683394 1.167533067978022
-20.461040740740742 26.266400000000001 1.569796296296296
-20.025334053497946 26.198198045267489 1.151925617283951
-19.286404423868316 26.206775823045273 1.286247839506173
-18.750576543209881 26.185644050068589 1.132617181069959
-18.225018621399183 26.206330041152267 1.295150102880658
-17.114718621399181 26.191151028806587 1.180425411522634
-15.804233333333334 26.188270370370372 1.163244444444445
-14.355530452674897 26.188084362139918 1.167003497942387
-12.816181069958846 26.188102880658437 1.170705967078189
-11.212818518518517 26.188333333333333 1.174596296296296
-9.549847016460904 26.188122016460905 1.174485493827160
-7.868123559670781 26.188126954732510 1.175580555555556
-6.172722222222222 26.188348148148151 1.177940740740741
-4.427370576131687 26.188106815070270 1.176543960947667
-2.558001440329218 26.187855262580133 1.174980134294977
2.558000617283950 26.187855262580133 1.174980134294977
4.427364814814815 26.188106815070270 1.176543960947667
6.172707407407408 26.188348148148151 1.177940740740741
7.868101131687244 26.188126954732510 1.175580555555556
9.549824588477366 26.188122016460905 1.174485493827160
11.212803703703704 26.188333333333333 1.174596296296296
12.816175308641974 26.188102880658437 1.170705967078189
14.355529629629629 26.188084362139918 1.167003497942387
15.804233333333334 26.188270370370372 1.163244444444445
17.114718621399177 26.191151028806587 1.180425411522634
18.225018621399176 26.206330041152267 1.295150102880658
18.750576543209881 26.185644050068589 1.132617181069959
19.286404423868316 26.206775823045273 1.286247839506173
20.025334053497943 26.198198045267489 1.151925617283951
20.571509259259258 26.247481481481483 1.337479629629630
20.848734347948707 26.112192476403823 1.229903172993080
-21.908174074074072 26.652551851851854 1.435811111111111
-21.536645679012349 26.454391975308642 1.495672736625514
-21.055762962962962 26.327451851851851 1.541314814814815
21.055762962962966 26.327451851851851 1.541314814814815
21.536645679012349 26.454392078189301 1.495672736625514
21.908174074074072 26.652551851851854 1.435811111111111
-30.033490534979428 26.998448148148150 1.185947736625515
-22.212455555555554 26.957407407407405 1.350433333333333
-21.506671862139918 26.983144907407407 1.398480401234568
21.506671862139921 26.983144907407407 1.398480401234568
22.212455555555561 26.957407407407405 1.350433333333333
30.033490534979425 26.998448559670784 1.185948148148148
-22.467794650205761 27.382303806584360 1.237227469135803
-21.824125925925927 27.384007407407410 1.156670370370371
21.824125925925927 27.384007407407410 1.156670370370371
22.467794650205764 27.382303909465019 1.237227469135802
-22.742256481481483 28.084983950617286 1.317504938271605
-22.219330229766804 27.953036402606315 1.509893484224966
22.219330229766804 27.953036402606315 1.509893484224966
22.742256481481483 28.084983950617286 1.317504938271605
-22.411959876543214 28.335030246913583 1.254831481481482
22.411959876543214 28.335030246913583 1.254831481481482
-30.508751851851851 29.150603703703705 1.333092592592593
-22.847014401459514 29.059964012213918 1.350570757385785
22.730644525891503 29.246507208241280 1.318987793921089
22.963383573388203 28.873420833333338 1.382153720850480
30.508751851851851 29.150603703703705 1.333107407407408
-23.083048319615916 29.516031824417013 1.228311334019204
23.083046433470507 29.516031841563791 1.228311334019204
-23.268025925925929 30.519688888888894 1.551477777777778
23.268011111111111 30.519688888888890 1.551477777777778
-23.342731790123462 31.118266563786008 1.413534259259259
-23.053001874809251 31.250322781355742 1.335014905771970
23.052999647236636 31.250322798502520 1.335015042946182
23.342698868312763 31.118266666666671 1.413534259259259
-30.820707407407408 31.651177777777779 1.296725925925926
-23.402325925925926 31.671440740740739 1.290059259259259
23.402277777777780 31.671440740740746 1.290059259259259
30.820707407407408 31.651177777777779 1.296777777777778
-23.450922222222221 32.179722222222217 1.176455555555555
23.450874074074076 32.179722222222217 1.176455555555556
-23.571977777777779 33.242359259259253 1.550629629629630
23.571970370370369 33.242359259259253 1.550629629629630
-23.594047839506175 33.664087139917697 1.462203395061728
23.594047119341564 33.664087139917697 1.462203395061728
-23.604119339387154 34.084934951761532 1.397060055700756
23.604119270800044 34.084934951761532 1.397060055700756
-31.023815637860086 34.340281893004118 1.179949794238683
-23.571136405600342 34.531903204344076 1.310497498108601
23.571135033858230 34.531903547279605 1.310497498108601
31.023815637860082 34.340281893004118 1.180011522633745
-31.088412860082304 34.925516460905349 1.518673868312757
-23.482774523007855 34.935145417134315 1.252780639730640
23.228164197530866 35.001703292181070 1.102937037037037
23.494898726239466 34.931977846364894 1.259920380168528
31.088412860082304 34.925516460905349 1.518734979423868
-23.451953635116599 35.478731893004117 1.200768038408779
23.451953635116599 35.478731893004117 1.200768038408779
-23.340664308489323 35.929254175694091 1.291486137980549
23.255328703703700 35.994976131687245 1.192745679012346
23.383332059441813 35.896393506339493 1.340859248123087
-23.185804628440231 36.375017346768701 1.550756031564841
-22.986949652629107 36.554052014025103 1.142498979254247
23.053231592439943 36.494381747710548 1.278584663357778
-23.279677777777778 37.044507407407401 1.273881481481482
-22.675043017206040 36.900730666463367 1.170302300168548
-22.381933297752639 37.120607305999073 1.128389161450381
22.528456731788559 37.010691260515244 1.149345730809464
23.279677777777778 37.044507407407401 1.273888888888889
-31.216260648148150 37.638716066529490 1.430844993141290
-21.603105931497495 37.544480557027875 1.153797906306347
-21.123072441074360 37.731087868109455 1.221771538851675
21.123049962271967 37.731088669197653 1.221771538851675
21.603065558918306 37.544486032902803 1.153797906306348
31.216260648148150 37.638716083676272 1.430911334019205
-23.303245679012349 38.136970987654323 1.361033333333334
-20.564977777777781 37.886596296296297 1.251240740740741
-19.912583024691358 38.024516049382719 1.283118209876543
-19.158443518518521 38.174966666666670 1.430988580246914
-18.573048148148150 38.162577777777784 1.088081481481481
-17.265581481481483 38.281700000000008 1.126748148148148
17.265566666666672 38.281700000000008 1.126748148148148
18.573044444444449 38.162577777777784 1.088081481481481
19.158442078189299 38.174966666666677 1.430988580246914
19.912581584362140 38.024516049382719 1.283118209876543
20.564970370370371 37.886596296296290 1.251240740740741
23.303245679012349 38.136970987654323 1.361041358024692
-16.542706481481485 38.414910288065848 1.507925308641975
-15.339212654320988 38.440664609053499 1.415042592592593
-14.035796296296297 38.483007407407406 1.435585185185185
-12.635360596707818 38.502166563786005 1.394262860082305
-10.122076286008230 38.486803155006854 1.182851474622771
-7.459316872427983 38.569224588477368 1.465572530864198
-5.791422222222223 38.596877777777770 1.553900000000000
-4.086735596707819 38.608355967078190 1.578501440329218
-1.176948148148148 38.560781481481484 1.351929629629630
-0.000008024691358 38.526669135802472 1.212601851851852
1.176929629629629 38.560781481481484 1.351929629629630
4.086713065843622 38.608355967078190 1.578501440329218
5.791407407407408 38.596877777777785 1.553900000000000
7.459310288065844 38.569224588477368 1.465572530864198
10.122062997256517 38.486803155006854 1.182851474622771
12.635320781893006 38.502166563786005 1.394262860082305
14.035748148148150 38.483007407407406 1.435585185185185
15.339172942386831 38.440664609053499 1.415042592592593
16.542684053497947 38.414910288065848 1.507925308641975
-23.328066666666668 39.259040740740737 1.468870370370371
23.328066666666668 39.259040740740737 1.468877777777778
-31.303062757201648 40.214165843621402 1.446217592592593
31.303062037037037 40.214166666666664 1.446251954732510
-31.307314197530872 42.119373456790129 1.173696296296296
31.307306172839507 42.119381481481483 1.173704320987654
-31.353855555555558 42.628551851851853 1.581385185185185
31.353840740740740 42.628566666666671 1.581388888888889
-23.388011495588085 43.070236910074001 1.096609521008956
23.388011482100822 43.070236910074001 1.096609778210603
-23.447535537314494 44.156554690896634 1.351570397658677
23.447535456390909 44.156554690896634 1.351570500539335
-31.333342181069963 44.403473456790124 1.404639506172840
31.333302469135802 44.403513168724281 1.404645370370370
-31.297221955825833 46.051230187550900 1.300958143848304
31.297179554894910 46.051272588481822 1.300981787341853
-23.586239145582223 46.603508203878455 1.192343050221231
23.586238093575602 46.603508306759117 1.192343050221231
-31.247567017056795 47.582497514992006 1.239101718680961
31.247548038712676 47.582516493336129 1.239134810499464
-23.834720750081015 48.663650039306702 1.137548257301373
23.834717545728232 48.663650450829337 1.137548257301373
-31.193362043001059 48.937216223482103 1.374575539470590
31.193359846212331 48.937217700106224 1.374603650177172
-31.102029681069961 50.169072856652960 1.546244633058985
-24.195996296296297 50.296870370370378 1.334059259259259
24.195992592592589 50.296870370370378 1.334059259259259
31.102016495198903 50.169072908093284 1.546271124828532
-30.955992181069966 50.935058847736627 1.233776543209877
-24.415783539094651 51.034304526748969 1.124015020576131
24.415782201646092 51.034304629629624 1.124015020576132
30.955962551440333 50.935059670781897 1.233806584362140
-30.782288888888889 51.909448148148151 1.547670370370370
30.782240740740743 51.909459259259258 1.547685185185185
-30.565264197530865 52.471656584362137 1.340646502057613
-25.151948148148151 52.628922222222229 1.515985185185185
25.151948148148151 52.628922222222229 1.515985185185185
30.565224382716053 52.471685596707822 1.340652366255144
-30.328032098765430 52.951883744855962 1.175423045267490
-25.417528189300413 53.046807613168731 1.460236831275720
25.417526748971198 53.046809156378607 1.460236831275720
30.328009567901237 52.951934979423875 1.175423971193416
-25.812135185185191 53.546466666666674 1.430857407407407
25.682651851851855 53.399825925925938 1.434840740740741
25.941588888888891 53.693137037037047 1.426874074074074
-29.581007407407412 54.126900000000006 1.561418518518519
-26.356021862139926 54.040248868312759 1.225991666666667
26.179922942386828 53.916513065843624 1.334245679012346
26.532018518518520 54.164087037037042 1.117737654320988
29.580996296296302 54.126929629629622 1.561418518518518
-29.360833333333336 54.310570370370378 1.523559259259259
-28.991644478737999 54.514709087791495 1.486649588477366
-28.317420195473250 54.586574691358031 1.428793199588478
-27.864860049235745 54.551819826572590 1.482296682098766
-27.445428145208705 54.498879629629634 1.474873412698413
-26.956259104938272 54.406257355967078 1.419817026748971
27.098763966049386 54.445766203703705 1.446661651234568
27.717871523716703 54.524013222872007 1.479298142733377
28.045335008818341 54.578595336076809 1.483690383107976
28.565522247942386 54.577331198559676 1.345702803497942
29.073145164609059 54.483466563786010 1.491157716049383
29.360811111111119 54.310581481481485 1.523559259259259
-22.919022119341562 21.660518415637860 2.043302366255144
-22.321199176954732 21.706348251028803 1.939527674897119
-21.994114609053501 21.760911831275720 1.859706687242799
22.157656893004116 21.733630761316867 1.899617181069959
22.704344650205766 21.667885288065847 2.011337242798354
23.133699588477370 21.653153189300415 2.075267489711934
-26.140939351667768 22.188725460038302 2.022620289701437
-21.724322249344613 21.825933713708618 1.766431916034722
-21.492266856523401 21.889881160569356 1.632639976029060
21.608294552934005 21.857907488579315 1.699535946031891
26.140939351667765 22.188732536846668 2.022620289701437
-26.803458383485054 22.478233158539712 1.845305402395655
-20.801855246913583 22.547519921436589 1.967580621025065
-20.599357469135803 22.724647345679010 1.871586851851852
20.702810794555241 22.642923266856602 1.912535580880025
20.893551577503430 22.429320473251028 2.046175754458162
26.803458383485054 22.478252449284650 1.845305402395656
-20.766869776828113 22.927731608103834 1.811514316239317
-20.568048675847823 23.034306605734315 1.760754666255234
20.657066308629126 22.987993427145952 1.782919681798086
20.838259670781895 22.853136831275719 1.844662242798354
-28.060504164273539 23.406827379674862 1.921760062414978
-20.463094651213559 23.540434628726992 1.832619901767161
20.463094118466614 23.540434628726992 1.832619901767161
28.060504164273539 23.406849522216461 1.921760062414978
-28.632121860851310 24.043390874589093 1.941700464124051
-20.344720850480112 24.020397016460905 1.832543249885688
20.312783830589851 24.197833727709188 1.708483556241426
20.360689360425241 23.931678660836766 1.894574254115227
28.632121860851310 24.043400185910162 1.941700464124051
-29.120330812573116 24.765823299544476 1.640510824680861
29.120330812573116 24.765824717916626 1.640510824680861
-20.392520884773663 24.972727211934163 1.933347273662552
20.392520884773663 24.972727211934156 1.933352006172840
-20.566212161037853 25.587844000099569 1.739963694282570
20.566212161037857 25.587844000099569 1.739964180107902
-29.710305058299046 25.981321553497942 1.689321330589849
-20.796900886894488 26.037642356630833 1.850473396597468
-19.778161831275721 26.253044341563790 1.609925617283951
-19.062207818930045 26.260127572016462 1.706758847736626
-18.617800411522637 26.260179423868312 1.710188477366255
-17.680768621399181 26.249320164609056 1.627882201646091
-16.467614814814819 26.246451851851855 1.610177777777778
-15.075411111111110 26.246499999999997 1.615511111111111
-13.567653909465017 26.246308436213990 1.617865843621400
-11.986803703703702 26.246540740740741 1.621944444444445
-10.343666666666666 26.246548148148147 1.623533333333333
-8.659316769547324 26.246333744855963 1.623047839506173
-6.967566666666666 26.246555555555556 1.625474074074075
-5.244751851851852 26.246555555555560 1.625944444444445
-3.419117489711935 26.246188446232608 1.623508343917618
-1.360492592592593 26.246356101291951 1.624889383816291
1.360492592592593 26.246356101291951 1.624889383816292
3.419116049382716 26.246188446232608 1.623508343917618
5.244744444444445 26.246555555555556 1.625944444444444
6.967551851851852 26.246555555555560 1.625474074074074
8.659298045267491 26.246333744855971 1.623047839506173
10.343651851851854 26.246548148148147 1.623533333333333
11.986796296296298 26.246540740740741 1.621944444444445
13.567652469135801 26.246308436213990 1.617865843621399
15.075411111111110 26.246499999999997 1.615511111111111
16.467614814814819 26.246451851851855 1.610177777777778
17.680768621399178 26.249320164609056 1.627882201646091
18.617800411522637 26.260179423868312 1.710188477366255
19.062207818930045 26.260127572016462 1.706758847736625
19.778161831275721 26.253044341563790 1.609925617283951
20.731457634444322 25.931391082138600 1.687689397058190
20.862344139344660 26.143893631123063 2.013257396136746
29.710305058299046 25.981321707818928 1.689321347736626
-21.794428789437585 26.610857098765436 1.953319358710563
-21.291148808299042 26.524242849794241 1.812544710219479
-20.930655864197533 26.356142901234570 1.901432098765432
-20.196316478052129 26.318188357338823 2.054977314814815
-19.494542781207134 26.306391409465029 2.050658110425240
-18.887462414266118 26.302174348422497 2.031415363511659
-18.227432904663925 26.305784276406037 2.060724811385460
-17.142292403978058 26.308160956790125 2.082151011659808
17.142292403978058 26.308160956790125 2.082151011659808
18.227432904663925 26.305784276406040 2.060724811385460
18.887462414266118 26.302174348422497 2.031415363511659
19.494542781207134 26.306391409465025 2.050658110425240
20.196316478052129 26.318188357338823 2.054977314814815
21.021140946502062 26.438752057613168 1.807843621399177
21.587307647462278 26.527686231138549 1.978871056241427
-22.401890157750341 27.220592695473250 1.788459499314129
-22.124902469135804 26.856290740740747 1.884325308641976
-21.597166049382714 27.099961248285325 2.066134327846365
21.597166049382718 27.099961248285325 2.066134327846365
22.124902469135804 26.856290740740747 1.884325308641976
22.401890157750348 27.220592712620029 1.788459499314129
-30.172674176954732 27.434663888888888 1.587750514403292
-22.626652606310014 27.703824897119340 1.667575651577504
-21.910706009945134 27.498692686899865 1.809188820301784
21.806217283950623 27.360366049382719 1.900315432098766
22.015194735939648 27.637019324417011 1.718062208504801
22.626652606310017 27.703824914266114 1.667575651577504
30.172674176954732 27.434663991769551 1.587751851851852
-30.303622222222220 27.886551851851852 1.983785185185185
-22.396333333333335 28.256485185185184 2.030996296296296
22.396333333333335 28.256485185185184 2.030996296296296
30.303622222222220 27.886551851851852 1.983788888888889
-22.936818518518518 28.613814814814816 1.992166666666667
-22.573725925925928 28.693014814814816 1.730233333333333
22.573725925925928 28.693014814814816 1.730233333333333
22.936818518518518 28.613814814814816 1.992166666666667
-23.073236419753087 29.241574588477366 1.844204320987654
23.073235699588476 29.241574588477366 1.844204320987654
-30.610360099451306 29.664665586419758 1.693914797668038
-22.860122720020296 29.750128113365193 1.662701934742340
22.860121668013676 29.750128113365193 1.662701934742340
30.610360099451306 29.664665603566533 1.693938683127572
-30.707617695473250 30.189484876543208 2.052931687242798
-23.179781481481484 29.886729629629631 1.696648148148148
23.179777777777776 29.886729629629631 1.696648148148148
30.707617695473250 30.189484876543208 2.052965432098766
-22.973608133382641 30.325226279298128 1.959791586156058
22.973606643121407 30.325226279298128 1.959791603302834
-23.352632407407409 30.848735699588477 2.066645987654321
23.352609979423871 30.848735802469136 2.066645987654321
-23.419712654320989 31.426349279835389 1.939789197530865
23.419672942386836 31.426349382716051 1.939789197530864
-30.899318518518516 32.217251851851849 1.637959259259259
-23.472988888888889 31.958200000000001 1.825466666666667
-23.123077294002695 31.990992393426456 1.596112896801748
23.123076007372987 31.990992496307125 1.596113616966357
23.472940740740739 31.958200000000001 1.825466666666667
30.899318518518516 32.217251851851856 1.638014814814815
-30.975287174211250 32.788186899862822 1.979200754458162
-23.516514403292181 32.444778703703697 1.719284156378601
23.516474691358027 32.444778806584360 1.719284156378601
30.975287174211250 32.788186899862822 1.979256412894376
-23.365349627408186 32.839205342916699 1.708856888278314
23.181611210929827 32.803827146738762 1.790485278614241
23.549064814814813 32.874583744855961 1.627229835390946
-23.228874189931673 33.673935800176622 1.929980622567394
23.228873936389540 33.673935937350834 1.929983246024184
-23.647698829288831 34.070690421416394 2.029361739257075
23.647698634958701 34.070690421416394 2.029361739257075
-23.590500988352062 34.557665182540532 1.920733448693383
23.268504012345677 34.611879835390944 2.036423456790124
23.611966860140686 34.554050907787179 1.913021165574725
-23.541879332678636 34.991707284262375 1.894758737841377
23.541879059109615 34.991708461934159 1.894763732229705
-31.151127263374487 35.514311213991768 1.858614609053498
-23.498117386831279 35.508101691815277 1.832372685185185
23.498117386831279 35.508101697530869 1.832372685185185
31.151127263374487 35.514311213991768 1.858675720164609
-23.355376823298638 36.087770724594627 1.792751179239356
23.276724663556408 36.281062970013956 1.795109783633532
23.394702851729420 35.991125750718979 1.791571877042268
-23.051406108489537 36.630744669969957 1.767382358654022
23.051403485032750 36.630757701520025 1.767382358654022
-22.855542097517880 36.869359603532644 1.793099543169381
-22.605023920676025 37.102401678199143 1.780277101908759
22.604994499293635 37.102430808477855 1.780277101908760
22.855529057498003 36.869383331011683 1.793099543169381
-22.290402999845618 37.323657911812063 1.735699353742295
-21.922922512877168 37.538528659411519 1.748979823563969
-21.488747788988782 37.745461348981038 1.818589859110405
21.488718367606392 37.745464553333818 1.818589859110405
22.106619518779890 37.431111271071927 1.742339588653132
-31.273574074074073 38.202988888888882 1.791811111111111
-20.983258952799090 37.921242731104662 1.860467821633029
-20.390887259945131 38.073224485596711 1.886416752400549
-19.701360493827160 38.215633333333336 1.944458024691358
19.701359670781894 38.215633333333336 1.944458024691358
20.390884619341566 38.073224502743486 1.886416752400549
20.983245912779211 37.921242984646796 1.860467821633029
31.273574074074073 38.202988888888889 1.791874074074075
-18.299544444444447 38.390348148148156 1.928662962962963
-17.644870370370370 38.451829629629636 1.948344444444444
-15.775745679012349 38.579796707818936 2.058871604938272
-14.506396021947875 38.620316375171470 2.053334670781893
-13.138732201646089 38.653461762688615 2.054484859396434
-11.675441152263375 38.629748971193415 1.845278600823046
-8.564735390946502 38.669921810699591 1.888701234567901
-2.352393621399177 38.648165843621399 1.714960699588478
2.352369855967078 38.648165843621399 1.714960699588477
8.564728806584363 38.669921810699591 1.888701234567901
11.675411522633746 38.629748971193415 1.845278600823046
13.138689711934159 38.653461762688615 2.054484859396434
14.506353652263375 38.620316375171470 2.053334670781893
15.775716460905352 38.579796707818929 2.058871604938272
17.644862962962964 38.451829629629636 1.948344444444444
18.299540740740742 38.390348148148156 1.928662962962963
-31.354602807121339 40.749100410653469 1.832717828003797
-23.356556893004115 40.390280967078183 1.605423765432099
23.356556893004115 40.390280967078183 1.605429526748971
31.354600920975933 40.749102327432908 1.832741826171742
-23.391132510288070 41.510255967078194 1.778724691358025
23.391132510288070 41.510255967078194 1.778727983539095
-23.436005658436216 42.620698251028813 1.986121913580247
23.436005658436216 42.620698251028813 1.986123353909465
-31.399342181069965 43.140421604938275 1.992688888888889
31.399319753086417 43.140444032921813 1.992691049382716
-31.374583454354774 44.887992741636594 1.838584709253329
-23.523531477250827 45.219298268375205 1.674296487314439
23.523530910785723 45.219298268375205 1.674296590195098
31.374541095767903 44.888035100223469 1.838597744851202
-23.616925947573542 46.233538441577210 2.074635135904848
23.616924457312308 46.233538458723984 2.074635153051625
-31.330642942982720 46.515307391535210 1.710859126088369
31.330609767107735 46.515340567410199 1.710891600622920
-23.706199953060512 47.531378787942089 1.607751751131186
23.706197725487890 47.531378925116300 1.607751751131186
-31.284806523229634 47.999169737214231 1.727326307158328
31.284796701264113 47.999179456299096 1.727360119141439
-23.846148610602796 48.410240096882575 2.006293873266498
23.846143134727868 48.410240199763230 2.006293873266498
-31.224286592214860 49.318242758783384 1.899223478114783
-24.002959199865938 49.434487509826681 1.604166385312997
24.002953460506131 49.434487612707336 1.604166385312997
31.224283688360494 49.318243022034174 1.899249545262725
-30.968511934156378 51.259130761316875 1.796889506172840
-24.401670370370368 50.914966666666665 1.899088888888889
24.401666666666667 50.914966666666665 1.899088888888889
30.968472119341566 51.259133436214000 1.796912139917695
-24.636983539094654 51.577200205761322 1.725192798353910
24.636982818930040 51.577200308641977 1.725192798353909
-24.889737037037037 52.142625925925927 1.601933333333333
24.889737037037040 52.142625925925927 1.601933333333333
-30.558546296296296 52.735634979423871 1.956258847736626
30.558513271604941 52.735678806584367 1.956260390946502
-30.318411111111107 53.192348148148149 1.811937037037037
30.318396296296299 53.192411111111113 1.811937037037037
-30.068914814814814 53.572892592592602 1.700837037037037
30.068911111111117 53.572959259259257 1.700837037037037
-29.819262448559673 53.882208950617290 1.617379938271605
-26.388086419753090 54.126256618655702 1.863741649519891
26.388031035665300 54.126312019890264 1.863741649519891
29.819259567901238 53.882261316872423 1.617379938271605
-28.709790843621402 54.622676748971195 1.620260493827161
-28.456810596707822 54.626816563786008 1.622980967078189
-26.804065037722914 54.395001337448569 1.885897016460905
26.804009653635116 54.395056995884772 1.885897016460905
28.583299125514401 54.624746656378605 1.621620730452675
-24.205279938271605 21.722205349794240 2.134735082304526
-23.635397736625517 21.670591255144036 2.117045267489712
23.635397736625517 21.670592695473257 2.117045267489712
24.205279938271605 21.722206790123455 2.134735082304526
-25.468611111111116 21.967416255144034 2.098528292181070
-24.817326543209884 21.813697736625517 2.132991872427983
-21.821865849230303 21.920681151130751 2.427421182657405
-21.325256705631762 22.100181983614618 2.218373446536605
-21.078916255144033 22.254465637860083 2.169595781893004
21.192567973560944 22.178965349039157 2.199260520948559
21.585386073693037 21.984923351077910 2.292671269400715
21.949942002431033 21.889631964737418 2.496434385170525
24.817326543209877 21.813699279835390 2.132991872427983
25.468611111111112 21.967418415637862 2.098528292181070
-27.259091407071892 22.770480980497911 2.146661708505512
-26.628961264143488 22.447684393107611 2.555169188403886
-20.816522267946961 22.628856298582537 2.426346724965707
20.726399502743490 22.783084859396435 2.579524254115227
20.996767798353911 22.320399176954734 2.119995473251029
26.628961264143488 22.447694424593291 2.555169188403886
27.259091407071889 22.770503225920162 2.146661708505512
-27.679259339809967 23.080243539695775 2.216610425473896
-20.784022529059275 23.073058497581400 2.483857095155585
-20.601175483920137 22.984220235101358 2.531608739140375
20.682679050536226 23.058677935216362 2.492138101695972
20.881344330132602 22.992560736739829 2.525179649634202
27.679259339809960 23.080266892096923 2.216610425473896
-20.575896787906508 23.447315859695458 2.299242412067337
20.575894814770855 23.447316470120690 2.299243022492577
-20.388823559670783 24.204140843621399 2.480436831275720
20.388823559670783 24.204140843621399 2.480438168724280
-28.858515842885055 24.342122827807529 2.453851940698752
-20.363380761316876 24.506633384773664 2.263049125514403
20.363380761316876 24.506633384773661 2.263053858024692
28.858515842885055 24.342126032160309 2.453851940698752
-29.319164086046140 25.100541640459063 2.112485806171090
29.319164086046140 25.100541911147971 2.112485806171090
-29.508525925925927 25.447548148148147 2.578325925925926
-20.535127830989204 25.453720632433956 2.433608327698003
20.535127830989204 25.453720632433964 2.433610539632159
29.508525925925927 25.447548148148147 2.578325925925926
-20.772492745830721 26.002452849329629 2.565721090105528
20.772492745830728 26.002452849329629 2.565721090105529
-29.952521399176959 26.572480555555551 2.336131995884774
-22.019188888888888 26.780118518518520 2.439411111111111
-21.343224862825792 26.550696090534984 2.465887928669410
-21.022018173808156 26.382173850568613 2.533490444649209
-20.587251851851850 26.395185185185184 2.560925925925926
-19.898407407407408 26.372374691358029 2.525701234567901
-18.927152263374488 26.346034979423873 2.367103292181070
-17.801208024691363 26.368659156378602 2.542902880658437
-15.820896913580249 26.308829629629635 2.091537037037037
-14.370425823045267 26.308831344307272 2.095326903292182
-12.813935493827159 26.308851406035664 2.097972685185185
-11.189883333333333 26.308901851851850 2.099995679012346
-9.523419427297668 26.308863408779153 2.100924519890261
-7.827644838820301 26.308865775034299 2.101748696844993
-6.110067901234569 26.308909876543211 2.102602469135803
-4.354362019890261 26.308822444099178 2.102296423238865
-2.415570250342935 26.308558611939286 2.100571948579084
-0.000000000000000 26.310127458957375 2.111611277215366
2.415569993141290 26.308558611939286 2.100571948579084
4.354359396433471 26.308822444099182 2.102296423238865
6.110059876543211 26.308909876543211 2.102602469135803
7.827631807270234 26.308865775034299 2.101748696844993
9.523406395747601 26.308863408779150 2.100924519890261
11.189875308641978 26.308901851851850 2.099995679012346
12.813932870370373 26.308851406035664 2.097972685185185
14.370425565843620 26.308831344307272 2.095326903292181
15.820896913580249 26.308829629629635 2.091537037037037
17.801208024691359 26.368659156378602 2.542902880658437
18.704948559670783 26.346060905349798 2.368818106995885
19.149355967078190 26.346009053497941 2.365388477366255
19.898407407407408 26.372374691358029 2.525701234567901
20.587251851851853 26.395185185185184 2.560925925925926
21.132550913903131 26.483744369942627 2.478864098833687
21.654040020576133 26.583029012345680 2.494561934156379
22.019188888888891 26.780118518518520 2.439411111111111
29.952521399176959 26.572480658436213 2.336132407407407
-22.317296296296295 27.083829629629630 2.360133333333333
-21.392568106995888 26.851940157750349 2.218652640603567
21.392568106995888 26.851940157750342 2.218652640603566
22.317296296296302 27.083829629629630 2.360133333333334
-22.567934567901233 27.507353600823041 2.254278909465021
-22.000377777777775 27.608603703703707 2.482333333333334
22.000377777777782 27.608603703703707 2.482333333333334
22.567934567901236 27.507353600823041 2.254278909465020
-22.770122222222223 28.027488888888886 2.130537037037037
-22.203154526748971 27.901223662551441 2.274760082304527
22.203154526748975 27.901223662551441 2.274760082304527
22.770122222222223 28.027488888888886 2.130537037037037
-30.426773456790123 28.354566666666670 2.373282716049383
-22.564022222222224 28.596170370370370 2.530437037037037
22.564022222222224 28.596170370370370 2.530437037037037
30.426773456790123 28.354566666666670 2.373290740740742
-22.887951324939056 29.027415322340573 2.328163678401771
22.723859976361926 29.100167784598842 2.167595875322061
23.052042489711933 28.954662860082305 2.488731481481481
-23.173648765432102 29.591112242798356 2.345680864197531
-22.860698253833409 29.566499533457105 2.551987204991946
23.017172679061300 29.578805888127732 2.448834034594738
-23.270477777777781 30.230614814814817 2.204714814814815
23.270470370370372 30.230614814814817 2.204714814814814
-30.799876337448563 30.728988580246916 2.407363168724280
30.799876337448563 30.728988580246916 2.407404320987654
-23.068776629485313 30.963548483735561 2.264990823631229
23.068775577478693 30.963548483735561 2.264990926511887
-23.494040209190672 31.711911248285322 2.503996913580247
-23.148152088241378 31.677375726759792 2.521513719847015
23.148151521776274 31.677375726759795 2.521514440011624
23.493997856652950 31.711911505486967 2.503996913580247
-23.541735356652950 32.222172736625510 2.396993810013718
23.541693004115228 32.222172993827158 2.396993810013718
-23.580819341563789 32.690608641975309 2.297757613168725
23.580790123456794 32.690609053497937 2.297757613168725
-23.607110785322362 33.094614334705071 2.217445318930041
23.607097753772294 33.094614471879282 2.217445318930041
-31.048676440329217 33.361593621399180 2.319561522633745
-23.633147788065848 33.572873096707823 2.119967163923183
23.633146270576134 33.572873105281204 2.119967163923183
31.048676440329217 33.361593621399180 2.319614609053498
-23.641704731769298 34.364163133994538 2.097071143357333
23.641704594595083 34.364163133994538 2.097071143357333
-23.668823688271605 34.907459053497945 2.575497350823046
-23.574190161360185 35.083773207710635 2.557283468702620
23.590647781356235 35.053110502773308 2.560456870638754
-23.484005606995886 35.559127520576133 2.403506044238683
23.301429320987651 35.608339094650205 2.119603086419753
23.544864334705078 35.542723696844995 2.498143518518519
-31.213462139917695 36.098294238683131 2.203023868312758
-23.476203922176431 35.943943269169132 2.385858392834494
23.476203922176428 35.943943680691767 2.385858392834495
31.213462139917699 36.098294238683131 2.203085596707819
-31.275863683127572 36.675523559670779 2.552695473251029
-23.255489718967691 36.608609676278135 2.245731681412907
23.255489350311997 36.608614417361821 2.245738190638455
31.275863683127572 36.675523559670786 2.552758436213992
-22.917576292553640 36.948454736523857 2.440958814693327
22.809366834699954 37.070007393477489 2.445289337205585
23.025761213991771 36.826957407407406 2.436628292181070
-23.355037037037036 37.726262962962956 2.276833333333334
-22.375358412801177 37.418027549407327 2.423455254771897
-21.825614494927901 37.746698410099526 2.452171142332098
21.825581217385263 37.746707721420599 2.452171142332098
22.212290147395677 37.530447761297872 2.418777741697295
22.538353028084853 37.305662248169568 2.428132767846501
23.355037037037039 37.726262962962956 2.276848148148149
-21.368608860827447 37.942602065640322 2.495846847493651
-20.832518930041157 38.112159876543210 2.526645267489712
-20.204615740740742 38.262440740740743 2.554377469135802
20.204614917695473 38.262440740740743 2.554377469135802
20.832513168724279 38.112159979423865 2.526645267489712
21.368590085728755 37.942603484012466 2.495846847493651
-31.330048148148148 38.761792592592592 2.157981481481481
-18.909343106995884 38.380341117969827 2.170629389574760
-16.944719598765435 38.565227914951990 2.229074674211248
-10.676059362139917 38.704093724279829 2.095308539094650
-9.638777366255143 38.717492489711930 2.109828086419753
-6.929825257201646 38.738077846364881 2.146697616598080
-5.243985476680384 38.755508590534980 2.194576406035665
-3.524847325102881 38.773869547325106 2.246742798353910
-0.591755555555556 38.769666666666666 2.199874074074074
0.591733333333333 38.769666666666666 2.199874074074074
3.524817695473252 38.773869547325106 2.246742798353910
5.243961711248286 38.755508590534980 2.194576406035665
6.929811968449933 38.738077846364881 2.146697616598080
9.638766460905350 38.717492489711930 2.109828086419753
10.676039917695475 38.704093724279829 2.095308539094650
16.944706567215366 38.565227914951990 2.229074674211248
18.909341203703704 38.380341117969834 2.170629389574760
31.330048148148148 38.761792592592592 2.158037037037037
-23.381892592592592 38.839455555555553 2.375718518518519
-1.774643227023320 38.831270541838137 2.461740432098765
1.774616872427984 38.831270541838137 2.461740432098765
23.381892592592592 38.839455555555553 2.375733333333333
-31.386059494364133 39.315269134933303 2.530136449402974
31.386059357189922 39.315269302741555 2.530181435225240
-23.411113054487878 39.958408328621303 2.505489718446264
23.411113054487874 39.958408328621303 2.505502736897360
-31.404881481481482 41.277229629629630 2.224825925925926
31.404877777777781 41.277233333333328 2.224840740740741
-31.443592181069967 43.663539506172846 2.404522222222222
-23.493013932376225 43.711037406946019 2.236868545806825
23.493013851452641 43.711037406946019 2.236869265971434
31.443562962962964 43.663568724279841 2.404525925925926
-23.562198939381428 44.748534812969254 2.550900109153225
23.562198615687084 44.748534812969261 2.550900520675859
-31.413696199379661 45.379020030066464 2.270410107371825
31.413656451150604 45.379059778295520 2.270432456761534
-31.363317052840923 46.979431275637715 2.123105572788452
-23.732797529107128 47.204911609532097 2.552067952473036
23.732794575885080 47.204911609532097 2.552067952473036
31.363294153023716 46.979454175454926 2.123144365883483
-31.396321784655147 47.433877109741303 2.551973951956537
31.396308088271958 47.433890788977720 2.552015209409585
-31.323853110275842 48.397205634669163 2.255835491215694
31.323849261392549 48.397209072029824 2.255867687128441
-24.006765016345479 49.221924914465738 2.448602351511969
24.006755705024407 49.221925017346393 2.448602351511970
-31.252981481481484 49.694685185185193 2.426918518518518
31.252974074074071 49.694685185185193 2.426940740740741
-24.188992592592594 50.139929629629641 2.124081481481481
24.188985185185185 50.139929629629641 2.124081481481481
-31.123773662551439 50.520291255144031 2.090227777777777
31.123751131687243 50.520291460905355 2.090251646090535
-30.978648148148149 51.576248148148146 2.372837037037037
-24.620200342935529 51.482243124142663 2.502316598079561
24.620197719478739 51.482243141289445 2.502316615226338
30.978600000000000 51.576255555555569 2.372851851851852
-30.782407407407408 52.199129629629624 2.143159259259259
-24.868715157750344 52.076548165294938 2.363418449931413
24.868714900548699 52.076548182441712 2.363418467078190
30.782359259259263 52.199151851851859 2.143166666666667
-25.129530246913586 52.587012345679021 2.267058641975309
25.129530246913586 52.587012345679014 2.267058641975309
-25.395868621399181 53.026735802469148 2.203418998628258
25.395868227023325 53.026736213991768 2.203419015775034
-30.309267283950621 53.427995679012355 2.466029012345679
-30.060311454046641 53.786830727023322 2.373014077503429
-25.794111934156380 53.557015329218117 2.162419838820302
25.662787259945134 53.400469753086426 2.168556978737997
25.925416049382722 53.713581481481498 2.156282716049383
30.184784147805217 53.607476157407405 2.419521544924554
-29.814730281207137 54.075921570644724 2.305470661865569
-26.370799845679016 54.122602280521264 2.146484353566530
26.176133299039780 53.965696896433471 2.129446484910837
26.565366666666666 54.279607407407404 2.163522222222223
29.814724879972569 54.075958590534981 2.305470661865569
-29.376976748971202 54.451121399176962 2.239553006401463
-28.878229995427532 54.707123205304072 2.314311294010059
-28.390299432837406 54.714651516830230 2.233625358763322
-27.909382156329610 54.656783247599471 2.211976688957476
-27.430233893461363 54.604281007087337 2.203996776406036
-26.855734370713307 54.442390329218114 2.169938580246914
26.704248148148150 54.368740740740741 2.171118518518519
27.156493587105629 54.561191500914497 2.191377229080933
27.650509371665905 54.615377221460150 2.206939645252249
28.010807289153782 54.675541550186850 2.212514458280119
28.531367266803844 54.721437169924556 2.283430285493827
29.016417735482396 54.647804755372668 2.219790843621399
29.476179295267496 54.384953772290814 2.250243381344307
-24.045762654320992 21.790910288065849 2.793652983539095
-23.497913786008230 21.754992489711938 2.773989094650206
-23.027992181069958 21.753691255144034 2.725647736625515
-22.616157613168724 21.781523353909463 2.661152057613169
22.616157613168728 21.781524794238681 2.661152057613169
23.027992181069962 21.753692695473251 2.725647736625515
23.497913786008237 21.754993930041156 2.773989094650206
24.045762654320992 21.790911728395063 2.793652983539095
-25.952531326976413 22.182263731643243 2.688770906985388
-25.282132716049386 21.987391563786009 2.762241872427984
-24.645549074074079 21.863028806584364 2.791303600823045
-22.252212139917699 21.829583436213991 2.588227674897119
-21.487042972099449 22.157585913320190 2.895081553776000
21.331500931534826 22.244592056480553 2.918815729982509
21.564813992381755 22.114082850313398 2.883214465672745
22.252212139917699 21.829584773662550 2.588227674897119
24.645549074074079 21.863029629629633 2.791303600823045
25.282132716049386 21.987392489711937 2.762241872427984
25.952531326976409 22.182265870179993 2.688770906985388
-27.099424257505440 22.728440436129244 3.008817421358670
-21.210286595741248 22.323635145700408 2.898556691081232
-20.902041909579335 22.623945913351630 2.688020220336077
20.795696119112943 22.743823834019206 2.604935659579333
20.964770115335444 22.557952777258656 2.734017860466148
27.099424257505440 22.728453208969352 3.008817421358670
-28.312732779453313 23.682243694016758 2.640902606543855
-20.710218509938301 23.439235386820215 3.066086727675451
-20.552736608353968 23.717602049360597 2.880182251647199
20.657721644523988 23.532029486953704 3.004123781619395
28.312732779453313 23.682256329682659 2.640902606543855
-20.448577829218110 23.962464248971195 2.657037551440329
20.448577829218110 23.962464248971195 2.657037602880659
-29.076740689116324 24.654539966211143 2.960187367890738
-20.424388888888888 24.613351851851849 2.981785185185185
20.424388888888888 24.613351851851849 2.981792592592593
29.076740689116324 24.654540767299338 2.960187367890738
-20.437429526748971 24.955599742798356 2.729309310699588
20.437429526748971 24.955599742798356 2.729317746913581
-29.688748148148150 25.807759259259260 3.036270370370371
-20.796737596183721 26.036228071811820 2.758667723261684
20.703633486571466 25.875986182662960 2.657506275290714
20.889841705795980 26.196469960960670 2.859829171232655
29.688748148148150 25.807759259259257 3.036270370370371
-21.887797427983539 26.730448765432101 3.015071193415638
-21.467004835390949 26.575675925925925 3.059571193415638
-20.271790740740741 26.446313580246912 3.058830864197531
-19.493798148148148 26.411987654320995 2.860653086419753
-18.998836282578878 26.430640277777783 3.011624279835391
-18.432606172839510 26.411550514403299 2.868800411522634
-17.362532098765438 26.439327057613170 3.082046090534980
-16.594988888888892 26.375288888888889 2.596777777777778
-15.199437037037036 26.375351851851850 2.600766666666667
-13.688015226337447 26.375351851851850 2.603424588477367
-12.097900000000001 26.375403703703700 2.605544444444444
-10.445181481481482 26.375407407407408 2.606822222222222
-8.751538065843620 26.375367695473255 2.607478292181070
-7.045329629629630 26.375411111111116 2.608344444444445
-5.308344444444445 26.375411111111116 2.608707407407408
-3.468979320987655 26.375127849524787 2.606938282189223
-1.393440740740741 26.375211656847508 2.607544939371847
1.393440740740741 26.375211656847508 2.607544939371847
3.468978600823046 26.375127849524787 2.606938282189223
5.308340740740741 26.375411111111116 2.608707407407408
7.045322222222222 26.375411111111116 2.608344444444445
8.751528600823045 26.375367695473248 2.607478292181070
10.445174074074075 26.375407407407408 2.606822222222222
12.097896296296296 26.375403703703707 2.605544444444444
13.688014506172840 26.375351851851850 2.603424588477366
15.199437037037036 26.375351851851850 2.600766666666667
16.594988888888892 26.375288888888889 2.596777777777778
17.362532098765431 26.439327057613170 3.082046090534980
18.432606172839506 26.411550514403292 2.868800411522634
18.998836282578878 26.430640277777776 3.011624279835391
19.493798148148148 26.411987654320992 2.860653086419753
20.271790740740741 26.446313580246912 3.058830864197531
21.467004835390949 26.575675925925925 3.059571193415638
21.887797427983539 26.730448765432101 3.015071193415638
-30.177394564471882 27.195012397119342 2.969901234567901
-22.215562962962963 26.970818518518517 2.952929629629630
-21.488494187242800 26.978562294238685 2.905637088477366
21.488494187242800 26.978562294238685 2.905637088477366
22.215562962962963 26.970818518518517 2.952929629629629
30.177394564471882 27.195012431412895 2.969903137860082
-22.489968518518513 27.330394958847734 2.863701748971193
-21.793859259259253 27.346029629629630 2.662825925925926
21.793859259259261 27.346029629629630 2.662825925925926
22.489968518518523 27.330394958847734 2.863701748971194
-22.716008024691359 27.798419650205759 2.753359773662552
-22.288152674897120 28.028423662551440 2.938200823045268
22.191537860082306 27.865392798353909 3.057788477366255
22.550387757201648 27.994937088477364 2.785986471193416
-22.899670370370369 28.348081481481483 2.627877777777778
22.899670370370369 28.348081481481483 2.627877777777778
-30.542566666666669 28.839162962962963 2.755474074074074
-22.940202106968581 29.133264873682279 3.007898764644465
22.720574570820268 28.978636331726698 2.997054319412388
23.159829218106999 29.287893415637868 3.018743209876543
30.542566666666662 28.839162962962963 2.755488888888889
-23.268563837448561 29.922282596021951 2.884307338820302
-22.982170400998584 30.104524492191896 2.888732238365533
23.125365524262627 30.013403552680309 2.886519788592917
-23.358030452674900 30.551326320301786 2.749546587791495
23.358017421124831 30.551326457475998 2.749546587791495
-30.887718947187931 31.278995627572016 2.757535185185185
-23.434741975308643 31.156983539094650 2.618240740740741
23.434712757201648 31.156983950617288 2.618240740740741
30.887718947187931 31.278995627572016 2.757580315500686
-23.411772882840545 32.470622453107040 2.862347901792210
23.213097801130029 32.468539059163348 2.722253656808014
23.610414814814817 32.472706584362136 3.002444032921810
-23.664504629629633 33.293898045267490 2.843238374485596
-23.642878600823050 32.916363888888888 2.914494650205761
23.653679372427987 33.105131378600817 2.878866512345680
-23.681250308641978 33.612982201646098 2.779991666666666
-23.266600000000000 33.322562962962962 2.867125925925926
23.266600000000000 33.322562962962962 2.867129629629630
23.681249588477371 33.612982201646084 2.779991666666666
-31.119372736625511 33.942351028806591 2.658809053497943
-23.693421967314645 34.040951889068616 2.702566993004689
-23.311437037037038 34.244181481481483 2.974266666666667
23.311437037037038 34.244181481481483 2.974274074074074
23.693421658672666 34.040951889068602 2.702566993004689
31.119372736625511 33.942351028806584 2.658859670781893
-31.188339506172838 34.526377349108373 2.998953326474624
-23.683858600361496 34.534464752185656 2.752199152274671
-23.649687363590481 34.624366278980801 2.609831235894110
23.664637019261129 34.585034361007928 2.672117199310605
31.188339506172838 34.526377349108365 2.999003120713307
-23.348575708808863 35.222595571419660 3.057531145058061
23.348575691662084 35.222595588566435 3.057544163509157
-23.469263181435686 36.136292651885178 2.861637405180173
23.469263181435686 36.136293680691765 2.861637405180173
-23.281470807381897 36.539460488895010 2.836472091871490
23.234543479789600 36.626590079868720 2.848595532752189
23.375323902209846 36.365228416001095 2.812225210110091
-31.337311111111109 37.250629629629628 2.906025925925926
31.337311111111109 37.250629629629636 2.906088888888889
-19.477895987654321 38.408043827160498 2.641501543209877
-18.650470061728395 38.598591769547333 3.023409979423869
-18.016451594650206 38.635526680384096 2.905546193415638
-17.338534567901235 38.725183744855968 3.062453600823045
-16.201623765432100 38.718317078189301 2.737329629629630
-14.966693518518520 38.757916460905356 2.706449382716050
-13.632421502057616 38.797209567901234 2.718245679012346
13.632381687242798 38.797209567901234 2.718245679012346
14.966660596707820 38.757916460905342 2.706449382716050
16.201605041152266 38.718317078189301 2.737329629629630
17.338528806584364 38.725183744855968 3.062453600823046
18.016448971193416 38.635526680384096 2.905546193415638
18.650468724279836 38.598591769547333 3.023409979423869
19.477895164609055 38.408043827160498 2.641501543209877
-12.200692078189300 38.801166563786012 2.603854218106996
-11.222745781893003 38.903507304526748 2.985504835390946
-9.144408230452674 38.931520884773654 3.017376234567902
-8.050962551440330 38.857328292181073 2.666716975308642
-6.392922325102881 38.901040637860085 2.833044650205761
-4.691327572016461 38.916257201646090 2.871904526748972
-2.955323251028807 38.940434362139918 2.950123045267490
2.955289609053498 38.940434362139918 2.950123045267490
4.691294547325103 38.916257201646090 2.871904526748971
6.392899794238684 38.901040637860085 2.833044650205761
8.050951646090535 38.857328292181073 2.666716975308642
9.144396707818929 38.931520884773654 3.017376234567901
11.222722016460907 38.903507304526748 2.985504835390947
12.200658436213992 38.801166563786012 2.603854218106996
-31.441438036143637 39.865963163509257 2.909699869257352
31.441437315979034 39.865963964597455 2.909733570199174
-23.445377880658437 41.062243930041149 2.680971913580247
23.445377880658437 41.062243930041149 2.680981378600823
-31.453937037037036 41.800703703703704 2.623877777777778
