ply
format ascii 1.0
element vertex 848
property double x
property double y
property double z
end_header
-5.108007605160528 26.384586824152681 -2.563584825951008
-4.823162503140300 26.302908007808476 -2.415572838414742
4.997057758387399 26.307960094123764 -2.441689170639100
5.292537531283235 26.392811256148537 -2.568370076049361
5.848351541417682 26.433940702224959 -2.553995315104051
6.272618012626829 26.328906495772507 -2.511633753628425
10.486908980297653 26.311375832253514 -2.462275330875435
10.796874515631600 26.400658920447636 -2.567494827110519
11.349642876372640 26.433106642362912 -2.547614851133293
11.754108726805574 26.324494436591696 -2.513593064860256
-4.440968764637492 2.966029891849845 -1.972461240966576
-4.234367590793981 2.882701947897781 -2.047472666119888
-3.730692210592167 2.877657719323392 -2.023719781718692
-3.188146499592745 2.880637047932777 -1.969304372674650
-2.711726252575199 2.881913145019926 -2.028270488704238
-2.182801128492190 2.885060603786754 -2.022745073986902
-1.635534720295232 2.887190535611454 -1.984984911270263
-1.109976748971194 2.888210905349794 -2.014731069958848
-0.598260148579138 2.888829630517135 -2.050146452800990
-0.204632651534774 2.889227419949759 -2.031064487870128
0.395865708928981 2.889331848231152 -1.963116829320223
0.765774364195471 2.888816970539871 -2.054403659151031
1.354248379695745 2.887767243934539 -2.009530584396875
1.968177969702370 2.885358331731231 -2.037029486345333
2.444714989462573 2.882067046194078 -2.038170027649607
2.891973833466405 2.878405001595897 -1.985328097299802
3.358898668182176 2.870923540796630 -2.027416322420423
3.954436122367676 2.861525403306330 -1.987281434269406
4.337798807599173 2.855019222761120 -2.032395009763164
4.750716783586967 2.905952213200026 -2.040327185696136
-4.445540139531894 3.317012586269719 -2.019092666270148
4.799319395544380 3.333236302265916 -2.027510267743738
-4.444802651052385 3.872133293145576 -2.018617537669325
4.803287454683520 3.876787639011366 -2.038456317974720
-4.441144259259260 4.258332786250304 -1.965818190914226
-4.228852562083158 4.347312463932642 -2.042783075895179
-3.718336974778582 4.360031781523463 -2.032100655445896
-3.133445065163972 4.366786901542217 -2.008326270058339
-2.662555735557298 4.368344345043487 -2.023801166040776
-2.130868786142715 4.390206135856265 -1.997042701525054
-1.706183429036272 4.454433336523430 -2.122204640396210
1.514741942573887 4.495521308766680 -2.218636517957351
1.868454140334117 4.429730204659024 -2.034574678804135
2.336253992910009 4.369160866631835 -2.016040431898154
2.849908753866936 4.367291109962251 -2.021450789591735
3.362521022162794 4.360153603597074 -2.037701521042746
3.904059333081220 4.345450574598308 -2.024129732767142
4.348884615099064 4.331729480258228 -2.022667633249898
4.746908726736325 4.267937747837805 -2.035575394254249
-1.947705452674897 4.806861287477953 -1.824985288065843
-1.633211556212849 4.829412165637860 -2.102737815072017
1.491435462651204 4.840953900112233 -2.211397067901235
1.809796346021949 4.815171404320988 -1.954407409979424
-1.958361563786009 5.302647901234568 -1.813198930041153
-1.642501656378601 5.364582942386830 -2.094489705075446
1.481819804526749 5.383102443415637 -2.217925205761317
1.814359824094247 5.337651694504963 -1.949612402162511
-1.951904876543210 5.888895925925926 -1.819822469135802
-1.641461807270233 5.913058607681754 -2.095580250342936
1.497172389733038 5.914888255777145 -2.207167026748971
1.822751397779810 5.903228524615151 -1.942057199740894
-1.940489383695865 6.156588281403097 -1.819932329022144
-1.601179826725372 6.186272037571721 -1.961832644881042
-1.183628228181000 6.195987130962051 -2.157879327322132
-0.896797993827161 6.389182098765433 -2.266734567901235
0.997484122085048 6.198338769796734 -2.233255153073949
1.377858807253505 6.192145769012018 -2.070720860433604
1.731181669554545 6.178155668182802 -1.898914395891994
-1.531293095564701 6.792406189986283 -1.892390863625972
-1.145520513260174 6.803105924211249 -2.142127413408779
0.991239183813443 6.794851728395062 -2.224294931412894
1.365322800925926 6.787423679698217 -2.009461838420211
1.629511111111111 6.780177777777777 -1.809700000000000
-1.531528189300412 7.255059876543211 -1.891312191358025
-1.140377743484225 7.316999118165785 -2.145177851263963
0.990412242798354 7.291534156378602 -2.224813728852309
1.358579203409759 7.293375661375663 -2.014204409171076
1.629511111111111 7.131348148148149 -1.809700000000000
-1.520366529492456 7.729813168724281 -1.899719341563786
-1.141593509945130 7.764329012345680 -2.146995653292181
0.951696141975308 7.765519753086420 -2.242396519204390
1.343858950617284 7.787896296296298 -2.023130205761317
1.629390534979424 7.653637037037037 -1.809801440329218
-1.542510425240055 8.304587654320988 -1.881872839506173
-1.125093703703704 8.232042222222223 -2.152322222222222
1.029278292181070 8.259544444444446 -2.207735905349794
1.359639403292181 8.259544444444446 -2.016169238683128
1.629511111111111 8.397055555555557 -1.809700000000000
-1.532535185185185 8.863646090534980 -1.892402160493827
-1.154957160493827 8.898880411522633 -2.136411604938272
0.990259259259259 8.866799382716049 -2.224301234567901
1.372087695473251 8.831947489711933 -2.004011069958848
-1.530655349794239 9.392260493827161 -1.890138888888889
-1.103929320987654 9.394793209876543 -2.167093827160494
0.990833333333333 9.397325925925927 -2.225722222222222
1.324626131687243 9.392260493827161 -2.039839917695474
1.629511111111111 9.397325925925927 -1.809700000000000
-1.499252263374486 9.771270370370374 -1.919213580246914
-1.178922822359397 9.781401234567902 -2.127107355967079
0.912680144032922 9.781401234567902 -2.258969375857339
1.356923216735254 9.778024279835392 -2.011787517146777
-1.565549794238683 10.180671604938274 -1.865757407407407
-1.138979972565158 10.184048559670783 -2.142614197530864
1.067723251028806 10.190802469135804 -2.189749588477366
1.395016255144033 10.180671604938274 -1.992194238683128
-1.520366529492456 10.755241975308643 -1.899719341563786
-1.141593509945130 10.832761728395063 -2.146995653292182
0.951696141975309 10.830229012345679 -2.242396519204390
1.343858950617284 10.873195061728396 -2.023130205761317
1.629390534979424 10.615398765432099 -1.809801440329218
-1.565818106995885 11.494980246913583 -1.865590740740741
-1.139113991769547 11.493291769547328 -2.142530452674897
1.067723251028807 11.494980246913583 -2.189749588477366
1.394834465020576 11.492447530864201 -1.992346399176955
-1.530856584362140 11.947432716049388 -1.890013888888889
-1.104063271604938 11.947432716049388 -2.167009876543210
0.990833333333333 11.944900000000004 -2.225722222222223
1.324444341563786 11.947432716049388 -2.039992078189300
1.629511111111111 11.944900000000004 -1.809700000000000
-1.499520576131687 12.399884087791499 -1.919046913580247
-1.178922839506173 12.399884019204393 -2.127107407407408
0.912674074074074 12.399883950617289 -2.258954320987655
1.356842386831276 12.399884042066761 -2.011855144032922
-1.565549794238683 12.849802057613173 -1.865757407407407
-1.138980041152263 12.853178463648838 -2.142614403292181
1.067844444444444 12.854866666666672 -2.189648148148148
1.394955658436214 12.852334362139922 -1.992244958847737
-1.530655349794239 13.304783539094652 -1.890138888888889
-1.103929320987654 13.307315843621401 -2.167093827160494
0.990833333333333 13.309848148148150 -2.225722222222222
1.324626131687243 13.304783539094652 -2.039839917695474
1.629511111111111 13.309848148148150 -1.809700000000000
-1.499252263374486 13.744569958847741 -1.919213580246914
-1.178922822359397 13.754699176954734 -2.127107355967079
0.912680144032922 13.754699176954734 -2.258969375857339
1.356923216735254 13.751322770919069 -2.011787517146777
-1.565549794238683 14.184355144032923 -1.865757407407407
-1.138979972565158 14.187731550068589 -2.142614197530864
1.067723251028806 14.194484362139919 -2.189749588477367
1.395016255144033 14.184355144032923 -1.992194238683128
-1.520366529492456 14.748786694101511 -1.899719341563786
-1.141593509945130 14.821239711934158 -2.146995653292181
0.951696141975309 14.818707407407411 -2.242396519204390
1.343858950617284 14.858633991769548 -2.023130205761317
1.629390534979424 14.619074485596711 -1.809801440329218
-1.565818106995885 15.407475720164612 -1.865590740740741
-1.139113991769547 15.405787517146779 -2.142530452674897
-0.625963439509492 15.498631786395901 -1.856639048317112
-0.153160217299405 15.488507597165066 -1.927824188952276
0.338877129063892 15.490061795819681 -1.910239731948500
0.738802003534874 15.498832850585627 -1.847277312836340
1.394834465020576 15.404943415637863 -1.992346399176955
-1.520411248285322 15.879463625971653 -1.899691563786009
-1.141493055555556 15.934508830589854 -2.147058641975309
-0.646109477880659 15.804136379743944 -1.876597940957933
-0.138754239336338 15.803505470638189 -1.981045811287478
0.344851597099745 15.812080034620164 -1.955620834149847
0.769272004357299 15.809096586782864 -1.890883908254660
1.343883168724280 15.967783429355284 -2.023109917695473
1.629511111111111 15.766222222222225 -1.809700000000000
-1.565549794238683 16.405037448559671 -1.865757407407407
-1.138980041152263 16.403464334705077 -2.142614403292181
-0.638738698955366 16.346124358974361 -1.879851785902712
-0.132956481481482 16.363587139917698 -1.981531687242799
0.345034636488340 16.353465937149277 -1.956609440079811
0.777334897119342 16.360121419753089 -1.878691189986283
1.394955658436214 16.403857613168725 -1.992244958847737
-1.520187654320988 16.760793415637863 -1.899830452674897
-1.141426071673525 16.799399588477367 -2.147100591563786
-0.654933501683502 16.872686114228710 -1.873617860705824
-0.146361454046639 16.885246402987352 -1.981308161865569
0.344925836762689 16.878338367626888 -1.955249293552813
0.796946334876543 16.857914068930047 -1.944156018518519
1.344004382716049 16.825394897119345 -2.023008477366256
1.629511111111111 16.675322222222224 -1.809700000000000
-1.531662345679013 17.334590637860089 -1.891228858024692
-1.140473422496571 17.304293239271022 -2.145117886537331
-0.637197699214366 17.376136270108496 -1.879725324229954
-0.131120850480110 17.364013374485602 -1.982365500685871
0.337365927450084 17.377187768632837 -1.957688629782045
0.812236450617284 17.352825082304530 -1.961015102880659
1.358475323339212 17.358207583774256 -2.014291358024691
1.629390534979424 17.336878600823052 -1.809801440329218
-1.538520329218107 17.840101989026067 -1.886084567901235
-1.140025432098766 17.848511200274352 -2.144366913580247
-0.653746433470508 17.884237005381458 -1.874684523055820
-0.144387268518519 17.867686128257890 -1.980739463305898
0.350695427526292 17.884074914266122 -1.954667441129401
0.838782321673525 17.859065243484228 -1.966190514974852
1.366555121170553 17.857721002895904 -2.009414700502972
1.629511111111111 17.800444444444448 -1.809700000000000
-1.531401960448103 18.413503559385006 -1.890633949902835
-1.140248007707884 18.424694361976623 -2.144426630168529
-0.646946434542181 18.426671013374488 -1.878454162915810
-0.139086232975701 18.427193151087600 -1.983051910640799
0.345026762443661 18.432775867136979 -1.957712815990594
0.861351758898275 18.419592381416511 -2.025108572485741
1.357970483049186 18.421135147625577 -2.013804930106473
1.629132201646091 18.389876234567904 -1.809471262002744
-1.508439675302407 18.641570820862952 -1.854393324448186
-1.125117072632475 18.655582057168623 -1.980996253588122
-0.673485711064666 18.657254103075093 -2.041866527602261
-0.149694132303127 18.657538391982321 -2.102573275524200
0.360962938195397 18.657800591650400 -2.086979573339708
0.844823579396021 18.657141289179755 -2.014736662644265
1.298451635624321 18.651775202643719 -1.940754749879750
1.624974828532236 18.619488614540469 -1.799308299039780
-11.507910924520349 21.511462423333597 -2.024963772676152
-11.194108061283492 21.325233943081770 -2.015807060738732
-10.564654427069801 21.447678086021948 -2.021271627274601
-10.396720207475996 21.596869938843160 -2.038694915980796
-6.027071647361217 21.500396410381178 -2.025316412714028
-5.690725897795558 21.324778737037168 -2.014723500966350
-5.084039234510741 21.451740790532163 -2.021337445246324
5.080590566155381 21.594516300349174 -2.035416110175832
5.248789269234782 21.444431640999571 -2.022876230990691
5.888787154423332 21.325669357298430 -2.015056427980773
6.188378550594072 21.516149781792826 -2.022879430531153
10.574172125342937 21.588915724022634 -2.036289270404664
10.743493170146573 21.428699117833421 -2.021116058799055
11.399075995828039 21.328905168850468 -2.012019166726931
11.669682420791840 21.531063892861290 -2.026559574613609
-11.917206893038646 21.795721561673648 -2.038119945220805
-11.738433452451014 21.755878767251218 -2.027583514520336
-10.476640752489464 21.796794984779591 -2.022011585187725
-10.135531931117150 21.759850974398628 -2.030938145802940
-6.435927351424369 21.788584406582228 -2.038226882002847
-6.227933682700586 21.751743950409040 -2.024971130216394
-4.996746830704160 21.783791801968526 -2.021409539126185
-4.657145149602384 21.762558155476828 -2.031227086873879
4.813048685581724 21.759854600966779 -2.032779124947254
5.154974050780340 21.799491430709772 -2.021208886343834
6.436740602685195 21.757871951802073 -2.027305374187462
6.597993185024573 21.806347792298268 -2.037492181938150
10.288146329571251 21.759187783413900 -2.032433610892391
10.629909429737783 21.803177415936826 -2.022501327995850
11.940710340580715 21.766925359365235 -2.029207874925767
-12.144438314930227 22.422271622243901 -2.034336983363680
-11.662994462153641 22.425811183270664 -2.026128886678262
-10.455206406402889 22.390140325041660 -2.010518096044263
-10.255346116674726 22.412461771831676 -2.032312412397770
-9.714886165621518 22.499136504284870 -2.033211777803959
-6.632562246032720 22.402303966600531 -2.034625232501791
-6.170790178036361 22.436567083760568 -2.025265999036374
-4.953142702717138 22.441841719553853 -2.018446846611784
-4.752997250372568 22.393533672287351 -2.032864391709722
-4.238544042893483 22.500098334454545 -2.033691042453075
4.393548466560674 22.499193087750907 -2.033486524686300
4.939554193830699 22.415695819418616 -2.028064410316652
5.143933998215595 22.363684375231227 -2.023252661094320
6.352078644638686 22.420026756554911 -2.027983724996328
6.851179785232214 22.438699983937816 -2.033135792622358
9.871258528580080 22.497909267713400 -2.032857413285012
10.418695279004252 22.415535784928807 -2.028488670716890
10.623254150340316 22.356376503829715 -2.020514437995945
11.844694465463583 22.408101695449528 -2.028550664260900
12.404062383798378 22.493232162275696 -2.032425832749108
-12.118474596604344 22.601441373456790 -2.026292736131118
-11.707904327554516 22.628211083749274 -2.025382301486540
-10.499109626962355 22.811160219478733 -2.023447231748210
-10.187275358438628 22.601453244527821 -2.025391582216661
-9.792149619769299 22.601404957704613 -2.024330645133747
-6.629916626621865 22.601445208838136 -2.024601739580908
-6.224333479976663 22.629606438870500 -2.026607201518130
-5.025213534522177 22.811160219478737 -2.023401137402835
-4.704631392549615 22.601454636059731 -2.025557147823565
-4.309320904859516 22.601396317495947 -2.023669633993306
4.475280717727728 22.601408396026240 -2.027130399982332
4.872037601150478 22.601452068289515 -2.025402939871573
5.176909628867552 22.811160219478737 -2.023462911522634
6.385704826513539 22.628211083749271 -2.025336003730945
6.794925692751776 22.601442974622771 -2.024442746511784
9.959037179896757 22.601415033995345 -2.024440390085700
10.354352894354728 22.601450512065167 -2.026552117678804
10.650763532616981 22.811160219478737 -2.023462911522634
11.871195448509042 22.626776931601650 -2.024367586263246
12.285483838731414 22.601438015894313 -2.025933487217586
-11.490788888888892 23.333117695473252 -2.023524451303155
-10.499111111111112 23.333117695473252 -2.023431790123457
-6.016934979423868 23.333117695473252 -2.023478360768176
-5.025215020576131 23.333117695473252 -2.023385699588477
5.176911111111112 23.333117695473252 -2.023478360768176
6.168588888888891 23.333117695473252 -2.023385699588478
10.650765020576133 23.333117695473252 -2.023478360768176
11.642484979423868 23.333117695473252 -2.023385699588478
-11.490790371132450 23.865746776406038 -2.023400901158360
-10.499109626962355 23.865746776406027 -2.023555336457857
-6.016936467383021 23.865746776406031 -2.023354806812986
-5.025213534522177 23.865746776406034 -2.023509242112484
5.176909628867552 23.865746776406031 -2.023354806812986
6.168590373037649 23.865746776406038 -2.023509242112483
10.650763532616979 23.865746776406031 -2.023354806812986
11.642486465477823 23.865746776406034 -2.023509242112483
-11.490790371132455 24.375673799725650 -2.023509005868008
-10.499109626962357 24.375673799725657 -2.023447231748209
-6.016936467383021 24.375673799725657 -2.023462911522634
-5.025213534522177 24.375673799725654 -2.023401137402835
5.176909628867552 24.375673799725657 -2.023462911522634
6.168590373037647 24.375673799725650 -2.023401137402835
10.650763532616981 24.375673799725650 -2.023462911522634
11.642486465477823 24.375673799725657 -2.023401137402835
-11.490934865112024 24.879584636488350 -2.023486442615456
-10.498965134887976 24.879584636488342 -2.030667312528579
-6.017081007087334 24.879584636488350 -2.023440300640146
-5.025069004343851 24.879584636488346 -2.030621170553270
5.176765134887975 24.879584636488342 -2.023440300640146
6.168734865112026 24.879584636488346 -2.030621170553269
10.650618992912667 24.879584636488350 -2.023440300640147
11.642631001371745 24.879584636488350 -2.030621170553269
-11.492174974279841 25.403030849908564 -2.022971830704161
-10.497689619055787 25.403030849908561 -2.020260368798582
-6.019280370224439 25.399257458482918 -2.028193398126259
-5.023796243427071 25.403030849908564 -2.020214301840421
5.174566339053791 25.399257458482921 -2.028193398126259
6.170010380944217 25.403030849908557 -2.020214301840421
10.648419631234859 25.399257458482921 -2.028193398126258
11.643904157378836 25.403030849908561 -2.020214301840421
-11.916943957658676 25.805541536581345 -2.037771124472300
-11.781452985472011 25.745127191578369 -2.028664810428714
-10.462138580704158 25.664509745770456 -2.023054740512117
-10.132924722484871 25.775320622448618 -2.031634740326603
-6.435281967430898 25.796210371285987 -2.038380542402584
-6.272737121091719 25.734929545878604 -2.025228727944098
-4.977277729135662 25.667349620401325 -2.023641328822181
-4.653535375572885 25.777300200850057 -2.031733117482420
4.810877227767946 25.775158929616492 -2.032176031618734
5.141701691423795 25.663973160362289 -2.025433432925569
6.476762356721845 25.750441698289890 -2.028840496034745
6.597909676385417 25.817265114939445 -2.038218494647515
10.291152422850494 25.773085069447113 -2.032161402921505
10.625386869116884 25.659639711342887 -2.023861922922283
11.975496704279962 25.764165165064913 -2.030766447427702
-11.916888782447556 26.272555122866805 -2.037751407464461
-11.748352202651697 26.347870559097029 -2.025926984536714
-11.193484191119751 26.465059895959406 -2.017613952213841
-10.611214002135657 26.459876036676334 -2.014577468655752
-10.150916913290141 26.308294282404919 -2.032504940387434
-6.435498774743312 26.278204900955629 -2.037082273334509
-6.234674143788341 26.363181714680078 -2.023344960066069
-5.697318132112264 26.465202056561601 -2.016721203888376
-5.110419386624300 26.457239340018756 -2.016161844902607
-4.668445595740857 26.303761719263591 -2.032871229521492
4.831300163349502 26.309181814556975 -2.030158950859282
5.298335276185679 26.460469977991405 -2.016418604770796
5.884388053670367 26.464984353544491 -2.018777764227968
6.449027187687183 26.339691560866118 -2.028816164007543
6.597769186419750 26.265517421262011 -2.037980908916324
10.312511443920052 26.312859146405614 -2.029458659539473
10.802120649522625 26.462057356583525 -2.018400182546686
11.386247309619714 26.464724088922200 -2.014134760685995
11.954453867571354 26.324576119147878 -2.031337849351468
-4.631222369667522 2.924170451180920 -1.498407487623763
-4.148019704821419 2.882383988562466 -1.523125121615098
-3.747718851120166 2.885687665375739 -1.555697201310936
-3.175634823871266 2.886641950619829 -1.500986751231520
-2.653387882179907 2.886679937576600 -1.519683649910388
-2.167661435341979 2.887511915936484 -1.548782409989170
-1.720368114426672 2.888573087170276 -1.477755345265762
-1.167856936710279 2.889175420096022 -1.507063348765432
-0.598951277734300 2.889493209876544 -1.621616666666666
-0.182951838637223 2.889768460219480 -1.553616628943759
0.397393806081570 2.889768460219479 -1.513024859396433
0.837119483834340 2.889406352880659 -1.574289531893004
1.280359329685016 2.889005224051212 -1.525860070873343
1.816650845933750 2.888112398210962 -1.500422802484096
2.356773039382778 2.886550191702772 -1.508685777279562
2.767984065602354 2.884336277165723 -1.557071932843607
3.383997074907247 2.882713794863707 -1.478676995949051
3.952315827162840 2.877321023501143 -1.512473546281215
4.380502063124633 2.875741949588477 -1.518415787435087
4.658086645376085 2.940006074531321 -1.534102371256287
-4.687612445779110 3.320693378332035 -1.521606481018056
4.681496693037226 3.320711408814626 -1.521657502010312
-4.689859553010611 3.869479737925060 -1.517730327232691
4.681316398319614 3.867929330418383 -1.527524263831733
-4.627397645564479 4.296864712183868 -1.498488623363565
-4.159633312430596 4.360468358318636 -1.524996235057809
-3.717205530378607 4.366366705133754 -1.551796609087600
-3.152279201039832 4.368316414574761 -1.527568833760475
-2.624268347050754 4.371267924976258 -1.516662234884457
-2.233952987127955 4.446204658340511 -1.569179684260057
2.060962911522634 4.475869753086420 -1.731778600823045
2.324738117283951 4.421698121074289 -1.536210612952134
2.821226916395174 4.368411603154135 -1.529601939404014
3.321750800335050 4.367773149091445 -1.517335722872465
3.908737399674123 4.360197755298853 -1.525005226737910
4.380301632639183 4.352185448447330 -1.520473066700960
4.657716551970582 4.277000346249611 -1.527588873038927
-2.181469262362010 4.828656216931217 -1.530409318864721
2.044779398148148 4.819821604938272 -1.715413991769547
2.207568745461148 4.830787999273784 -1.495508660130719
-2.183686351165981 5.366693016218833 -1.525934446865166
2.044603497942387 5.413889506172839 -1.715211111111111
2.213901141485401 5.356579570840680 -1.485148265726044
-2.186259667484436 5.914870386198165 -1.522274416350111
2.044376877572017 5.937452469135802 -1.715151568930041
2.212391273070208 5.910734558548447 -1.487109914733757
-2.063838946012149 6.185977280423278 -1.469804891534391
-1.798832780454347 6.192224280880925 -1.667590041905049
1.918452263545954 6.193668381601507 -1.562593856995886
2.190703419183465 6.174649810513587 -1.422125119446188
-1.996890196942975 6.810022148736038 -1.391894466490299
-1.775178350970018 6.781777704291594 -1.665657483343131
1.887471391828336 6.795729864785423 -1.526672909318048
-1.993814917695473 7.337288580246915 -1.396527417695473
-1.780475360082304 7.289993827160495 -1.660133967764060
1.887148988340192 7.313938888888889 -1.527850488683128
-1.995092592592593 7.767901234567902 -1.397256481481481
-1.789892386831276 7.801226337448560 -1.649381092821216
1.903725624142661 7.787896296296298 -1.508803786008231
-1.985398216735254 8.214501234567901 -1.407629698216735
-1.781613374485597 8.259544444444446 -1.661137962962963
1.871678765432099 8.232042222222223 -1.548251975308642
-2.001556378600823 8.920267764060355 -1.384498971193415
-1.770384910836763 8.810815089163237 -1.670158436213992
1.885943347050755 8.865541426611797 -1.526956755829904
-1.970767078189300 9.392260493827161 -1.432172633744856
-1.810600000000000 9.397325925925927 -1.630133333333333
1.890638477366255 9.392260493827161 -1.530628806584362
-2.019300411522634 9.771270370370374 -1.362633744855967
-1.779337345679012 9.781401234567902 -1.659129972565158
1.912691540923640 9.778024279835392 -1.494050891632373
-1.992596090534979 10.180671604938274 -1.395651646090535
-1.752626748971194 10.190802469135804 -1.692142592592592
1.859280109739369 10.184048559670785 -1.559797873799726
-1.995092592592593 10.825163580246915 -1.397256481481481
-1.789892386831276 10.905216049382718 -1.649381092821216
1.903725624142661 10.873195061728396 -1.508803786008231
-1.992684362139918 11.492447530864201 -1.395431584362140
-1.752626748971194 11.494980246913583 -1.692142592592593
1.859159533607682 11.493291769547326 -1.559899314128944
-1.970825925925926 11.944900000000004 -1.432025925925926
-1.810600000000000 11.944900000000004 -1.630133333333333
1.890457613168724 11.947432716049388 -1.530780967078190
-2.019418106995885 12.399884087791499 -1.362340329218107
-1.779331069958848 12.399884019204393 -1.659124691358025
1.912606584362140 12.399884042066761 -1.494115637860083
-1.992625514403292 12.852334362139922 -1.395578292181070
-1.752492592592593 12.854866666666672 -1.692225925925926
1.859280109739369 12.853178463648838 -1.559797873799726
-1.970767078189300 13.304783539094652 -1.432172633744856
-1.810600000000000 13.309848148148150 -1.630133333333333
1.890638477366255 13.304783539094652 -1.530628806584362
-2.019300411522634 13.744569958847741 -1.362633744855967
-1.779337345679012 13.754699176954734 -1.659129972565158
1.912691540923640 13.751322770919069 -1.494050891632374
-1.992596090534979 14.184355144032926 -1.395651646090535
-1.752626748971194 14.194484362139919 -1.692142592592592
1.859280109739369 14.187731550068591 -1.559797873799726
-1.995092592592593 14.813642798353914 -1.397256481481481
-1.789892386831276 14.888628120713308 -1.649381092821216
1.903725624142661 14.858633991769551 -1.508803786008231
-1.992684362139918 15.404943415637863 -1.395431584362140
-1.479685961076818 15.498929818244173 -1.363174758516232
-1.143832992744807 15.486988257633501 -1.531039647542257
-0.702716309949968 15.464395545735137 -1.583379642203779
-0.164297384882589 15.462311552354835 -1.542970309628713
0.333771137026772 15.462330744170107 -1.580392872202662
0.895063639897853 15.474415382870925 -1.594270829888468
1.289964193353824 15.492395464141802 -1.442509746789371
1.859159533607682 15.405787517146779 -1.559899314128944
-1.995122016460905 15.933552023319619 -1.397183127572017
-1.556938460219478 15.850340820759037 -1.411198313900320
-1.165438642483361 15.803893136208909 -1.603819478737997
0.994806643423259 15.804033005639383 -1.723611219707362
1.326521063862217 15.803893136208915 -1.473296677970838
1.903746995884773 15.967783429355284 -1.508781769547325
-1.992625514403292 16.403857613168725 -1.395578292181070
-1.517374639917695 16.362149691358027 -1.400733916323731
-1.154470377229081 16.354429423868314 -1.612354298125286
1.007071111111111 16.353755061728400 -1.717046419753087
1.337157441700961 16.354429423868318 -1.464352887517147
1.859280109739369 16.403464334705077 -1.559797873799726
-1.995033744855967 16.802349176954735 -1.397403189300412
-1.619086904761905 16.861482774838333 -1.460713825200862
-1.179516829561042 16.878217826931877 -1.593962179926841
0.980061831275720 16.878338237311389 -1.732473148148148
1.313935262345679 16.878217826931877 -1.485005769890261
1.903870315500686 16.825394897119345 -1.508682057613169
-1.993844341563786 17.286861522633750 -1.396454063786008
-1.630159940843622 17.372996707818935 -1.496140594993141
-1.165780358367627 17.370680967078190 -1.604302749199817
0.995059773662551 17.369596553497942 -1.724167592592593
1.326914874828532 17.370680967078197 -1.473725780178327
1.887058556241427 17.331086985596713 -1.527926568930041
-1.993477297668038 17.847901108824878 -1.396064334705075
-1.627149475308642 17.869303689986289 -1.499269341563786
-1.165460139460448 17.876109588477373 -1.604082192501143
0.995072990397805 17.876422489711935 -1.723691862139918
1.326774005486969 17.876109588477370 -1.473377503429355
1.879459446315001 17.854737348796615 -1.536636401047512
-1.993347115054870 18.428633960619567 -1.395809164237540
-1.680380847527054 18.422784997523244 -1.550715991274196
-1.166782348346289 18.426941483767724 -1.605352106195702
0.995655272633745 18.427190397805216 -1.725491336591221
1.327744390146320 18.426941483767724 -1.474923260554793
1.886418249885688 18.424636849851396 -1.527584346422040
-1.966724365569273 18.640106151882335 -1.370509870827618
-1.637822111183017 18.657199514635600 -1.506711319361476
-1.228472690640978 18.651925480109742 -1.647565335713099
1.034623225308642 18.643753086419750 -1.736488420210334
1.386761999858980 18.656222846557203 -1.570527765118009
1.785564532079382 18.652999872517437 -1.471167132798056
-11.448677121158182 21.574769230888435 -1.713843827250152
-11.162345192151971 21.482045209325694 -1.581617122582445
-10.710895478809345 21.506053497797140 -1.618843112654795
-5.959632283594271 21.561363205653191 -1.703684519929275
-5.658589051130324 21.479872412952673 -1.573978254173565
-5.221000477439525 21.507931996386109 -1.625374981338580
5.389240358501104 21.504191997665945 -1.620030700823344
5.846996380331871 21.485155221435285 -1.582736174842899
6.132226735995256 21.577347460423393 -1.718201342546250
10.875087992193759 21.503626730406857 -1.615438764754646
11.342958188771618 21.487735837343415 -1.589700395431813
11.619655366941018 21.586792332647466 -1.728576155006859
-11.576088590293315 21.747689612611328 -1.524961704870980
-11.172567177344016 21.740865775243456 -1.492238968000612
-10.599415965927010 21.744225445207523 -1.477060235153911
-10.317778982817641 21.759717970963766 -1.616617859002686
-6.095992832433685 21.748235269523622 -1.527265084594165
-5.676035419468851 21.743067439061651 -1.487318025854588
-5.104874745044386 21.743643091338200 -1.477488532995161
-4.829118470751717 21.758551375102645 -1.640257063785923
4.999578648530785 21.759609343770599 -1.611748913573523
5.281428902433997 21.740899021749943 -1.478576664684592
5.866097839974979 21.742239737019421 -1.496680287286350
6.259022717452984 21.750006052728089 -1.519738104525354
10.490153628237566 21.756669146510948 -1.587811798658807
10.784666640680303 21.740656274570707 -1.478973423692632
11.371327017882686 21.740752162841474 -1.505730152178826
11.740876409700396 21.751873025516989 -1.516423810733841
-12.162727018534236 22.499783710965016 -1.522823022687842
-11.550122175873925 22.416285672242232 -1.587511654996750
-11.173054632731427 22.465007696693327 -1.456268981569145
-10.626026968416271 22.454606263423894 -1.525537599458940
-10.219271559168826 22.372730616611324 -1.554957160386065
-9.796250826440208 22.508278597519780 -1.547556704031969
-6.684595211370198 22.498668098527094 -1.522439348675519
-6.061274349410970 22.420660488166767 -1.585204371634293
-5.668797917523428 22.464908240533767 -1.448246870160324
-5.133381051028588 22.450698040951831 -1.530506180771844
-4.688024202215731 22.389574463879381 -1.537610778250331
-4.312696934764323 22.509002436668048 -1.565205157097601
4.477574557306498 22.507856715260900 -1.541196872720940
4.913845393304540 22.372353422184954 -1.559944480024353
5.309786758806976 22.455205105056013 -1.522677054222633
5.860129847419922 22.464666409540193 -1.461059025979984
6.233981223035323 22.414984374950507 -1.587994664269099
6.843788027898140 22.500350447852036 -1.524978882437737
9.961344738789572 22.506526511176144 -1.524959700243586
10.464356670137064 22.384960715430353 -1.602153297116526
10.813939004654040 22.456235740541764 -1.507198030648706
11.365416791857667 22.463168796078207 -1.471102566840635
11.723512142676530 22.411280708963574 -1.589820232094249
12.320413039897444 22.501174288195347 -1.525205390552218
-12.065790942773859 22.601427526291712 -1.543450353287652
-11.633411980445620 22.603156017533195 -1.533206045053308
-11.184962227267031 22.637363979910479 -1.402159998770759
-10.623739625550341 22.624876414569400 -1.453164663498954
-10.174489199329271 22.601482763257337 -1.534667541351964
-9.839131298162634 22.601361631831633 -1.594605457272295
-6.582390896851093 22.601431465080221 -1.541290805101831
-6.135612638744019 22.605563775209131 -1.528126597385702
-5.676031176739725 22.639159633467056 -1.396876600904086
-5.120584619288185 22.621001729438465 -1.467181095006446
-4.662981165629761 22.601482207950099 -1.528311332396609
-4.347538379979949 22.601352880658435 -1.622587710013945
4.524171845417843 22.601381605591477 -1.594218945137073
4.865581534689539 22.601477390295940 -1.536578969700697
5.314005714267663 22.625479947916997 -1.446991476579808
5.872267272140697 22.639321423571083 -1.407267607693615
6.319442521119052 22.601727783612240 -1.532914338104356
6.748344133825303 22.601424620705043 -1.538794638504015
10.010285975093037 22.601380008958312 -1.573127960197149
10.367228148916858 22.601481388396113 -1.540360102929287
10.812033390532948 22.628061381156506 -1.439567795630555
11.374619170817276 22.636095359410451 -1.412521319715100
11.818008345059773 22.601467357679482 -1.533713648295395
12.233169540190046 22.601418824488267 -1.545669617903284
-11.419249279835393 23.244129012345674 -1.740495164609053
-11.178250331504348 23.333117695473259 -1.576980498399634
-10.718482578875173 23.333117695473252 -1.617276063100137
-5.936258641975308 23.333117695473248 -1.728338683127572
-5.677304629629630 23.333117695473252 -1.567153497942387
-5.231376278659612 23.320405026455031 -1.623710493827160
5.396216131687242 23.333262798353910 -1.617329753086420
5.868228849902534 23.333079922027292 -1.584887816764132
6.105666666666667 23.153681481481481 -1.752911111111111
10.883588811728394 23.333208873456790 -1.611434143518519
11.368029044834309 23.323673684210529 -1.596988401559454
-11.419209259259262 23.779090740740742 -1.740425925925926
-11.178139630010671 23.865746776406034 -1.576925281969212
-10.718364188385918 23.865504938271613 -1.617348477366255
-5.936231961591221 23.866955967078187 -1.728292455418382
-5.677194111034904 23.865746776406031 -1.567098199588478
-5.231249201450128 23.852849118165782 -1.623788195669214
5.396332917238226 23.865650041152261 -1.617254154092364
5.868339204750560 23.865772644574395 -1.584945067143166
6.105666666666667 23.689766666666667 -1.752911111111111
10.883708140432100 23.865686805555555 -1.611363256601509
11.368131107862249 23.856484665367120 -1.597045662768031
-11.419289300411524 24.297517283950619 -1.740564403292181
-11.178242144871211 24.375673799725654 -1.576963805060205
-10.718454997713765 24.375480329218114 -1.617283786008230
-5.936338683127571 24.378092181069963 -1.728477366255144
-5.677305359320226 24.375673799725657 -1.567121347736626
-5.231323834019205 24.363783068783075 -1.623718810013717
5.396209858253316 24.376060740740748 -1.617318982624600
5.868254896758357 24.375686939571157 -1.584886587611003
6.105746913580248 24.210404938271605 -1.753049794238683
10.883592978395063 24.376052160493828 -1.611424033350480
11.368050850119124 24.366975438596498 -1.596994482347845
-11.416350137174213 24.856363786008234 -1.736306652949245
-11.171494384430728 24.879584636488346 -1.574372599451303
-10.712394128943760 24.879620761316879 -1.621367938957476
-5.936359460733882 24.879539763374488 -1.728232098765432
-5.677320928355052 24.879584636488346 -1.567002399119799
-5.228460122012851 24.875965659519178 -1.626324137246408
5.396168024691359 24.879729588477378 -1.617183024691358
5.865376318244170 24.877292362139919 -1.582866474622771
6.105666666666667 24.872318518518519 -1.752911111111111
10.880330145665951 24.876993787967869 -1.612698118753674
11.367426337448560 24.879025704336815 -1.598249387991981
-11.421779135802471 25.386997777777783 -1.741979629629630
-11.181728086419753 25.403030849908561 -1.576715847908093
-10.720269811385460 25.403102945816194 -1.614246005658436
-5.941156189986283 25.422175563938428 -1.732488094421582
-5.677270203546524 25.403030849908550 -1.565647688042981
-5.231585255625997 25.401078564675799 -1.621454682923665
5.391592939710262 25.407268516845662 -1.619748899260598
5.870681858710562 25.401016326420841 -1.584751298448049
6.106980864197531 25.417562962962965 -1.752642026748971
10.880533375420875 25.404644569148275 -1.613059192230951
11.369448613854592 25.403612134430730 -1.595254013717421
-11.583905409068095 25.759034324920439 -1.512245465555732
-11.168923107686551 25.674475267406002 -1.457061806430350
-10.569332627776133 25.718949433600088 -1.443437651901065
-10.316642346296492 25.775188405974468 -1.616793570601998
-6.105071321464693 25.756931298568212 -1.512254558894259
-5.671299173575830 25.674139522127376 -1.454282802397964
-5.076207662552048 25.724906788904786 -1.446794499870481
-4.828091003826992 25.773645879774620 -1.640848625895920
4.999878874379238 25.775078675159836 -1.609573448492263
5.253044466455032 25.719135950773019 -1.440609676077456
5.866207681982568 25.674874538972436 -1.458047859561821
6.264017093533187 25.758987827920251 -1.513462639614153
10.490304811076406 25.774375393478621 -1.583281399010897
10.756953838266126 25.711512137945746 -1.439810248791106
11.375223779216469 25.674563582714313 -1.468764374048301
11.744229698851633 25.762499783921552 -1.511801396484651
-11.576919503948313 26.325384994552696 -1.524909069351028
-11.158974872174442 26.428310673870364 -1.497037367147828
-10.600370694931261 26.379248669284340 -1.474514884224445
-10.318739723138266 26.302925058083115 -1.623249494417986
-6.096089000919321 26.328800770574126 -1.525194221563065
-5.657931035563927 26.429562320263223 -1.494534164293584
-5.101313593785645 26.372673409771910 -1.477168645185668
-4.829138125202871 26.300064996532072 -1.645401634643814
5.004192169304261 26.305690238848673 -1.615322231177151
5.289948711408845 26.382022973642549 -1.473393570914032
5.845747193715751 26.428810682992818 -1.500154032704796
6.258854045572364 26.322674081598549 -1.523796619267004
10.493931180032748 26.308263699629855 -1.595145152306185
10.792471414226307 26.389071730014827 -1.471681251427092
11.349390005633643 26.426802214754595 -1.502432617672824
11.740367812041731 26.318879410951009 -1.525075834820913
-5.938590784267175 2.948020144824312 -0.784215512556717
-5.663379975416090 2.884937065990394 -0.860035152809264
-5.137483966832172 2.889471466366226 -1.048729988873234
-4.671038911641341 2.861240099220482 -1.042236529723277
-4.186554714546283 2.874228108839632 -1.069738980824651
-3.672940248619023 2.884627454391841 -1.056805520767211
-3.167234730463125 2.887299545375113 -1.039262672220806
-2.679450793945022 2.888329070516801 -1.001862878916434
-2.223522547885853 2.888799902825736 -1.047928480690655
-1.682005805174866 2.889288881029332 -1.060107916362831
-1.229267766098152 2.889686917009603 -1.022316680384088
-0.653993709892147 2.889859122085048 -1.046602551440329
-0.065904848388455 2.889949045496114 -1.125182207361683
0.385787373215023 2.889933876314586 -1.078565026291724
0.829362088034331 2.889821513488798 -0.988384522176498
1.430850210941581 2.889450682441701 -1.045989780521262
1.920360672704179 2.888860413045602 -1.049911617090706
2.388995089103373 2.887957120402926 -1.067290677306693
2.864366210958938 2.887004393505643 -1.088284666480098
3.373474328137382 2.887289448886125 -0.996400705062772
3.945396714069568 2.885557165929724 -1.042637238090557
4.360158355869097 2.882454243418903 -1.025521990332484
4.726485458987534 2.932536345814440 -1.006471403873206
-5.939503060699589 3.337563134430727 -0.786167057613169
-5.687168266117971 3.331816754458161 -0.879879234110654
-5.139878054067346 3.335551760618061 -1.140709736780806
4.765398060396998 3.317852676410071 -1.024241917312192
-5.937648886602653 3.882942161636946 -0.786505848193873
-5.698123557247871 3.889836466906721 -0.875051193564740
-5.155314011322887 3.877421950581184 -1.131233953625491
4.764542950657629 3.872896359083757 -1.024184262033003
-5.927474062642890 4.145567158207592 -0.783372542295382
-5.653195530527132 4.211601494749083 -0.854774309756547
-5.134602110853971 4.268091582692936 -1.044505547341011
-4.675837305837974 4.335902072574574 -1.049704143299981
-4.192766313532946 4.356009211602934 -1.037073636611222
-3.656364783170140 4.367402737786592 -1.044590386573993
-3.161662559861867 4.368398777220508 -1.021807274148698
-2.624638648834019 4.414233764452282 -1.026166855281207
-2.376359067215364 4.516670864197532 -1.240829362139918
2.492063064330670 4.461900022189947 -1.064732958625837
2.827448333699542 4.371267571159121 -1.031597524432924
3.342655046708076 4.368371247354679 -1.013263293749242
3.903663912561238 4.366246835226207 -1.030418324465475
4.358228624479245 4.360087917714528 -1.030433704688056
4.724860947369981 4.294800012489630 -1.009501748441972
-2.493936799431707 4.830008245149911 -0.943031877082109
-2.380286745541838 4.826412477954144 -1.205341073878111
2.452794900058790 4.828653880070546 -1.039015121823764
-2.484595791245791 5.357897586980920 -0.967312077565781
-2.372822592592593 5.340076872427984 -1.219545555555556
2.452681944444445 5.352245961934156 -1.041334259259259
-2.488670840954123 5.912836419753085 -0.955225885916781
-2.379297399405578 5.883900800182897 -1.206497258420973
2.450978859929889 5.903270172229843 -1.042565990956663
-2.463053279749658 6.172366205418381 -0.923595808470508
-2.248598050692459 6.194326633593729 -1.050610133551107
2.085281147119341 6.377022299382718 -1.262277246227709
2.291513302305834 6.188954042148410 -1.025734913122999
-2.210002302812071 6.794375565843623 -1.013233317901234
2.211601167695473 6.794375637860083 -1.011236551783265
-2.203180058299040 7.292724897119342 -1.027471764974851
2.203640534979423 7.293518724279836 -1.027715946502058
-2.185561394032922 7.764329012345679 -1.065891958161866
2.203130864197531 7.764329012345679 -1.027751748971194
-2.202778806584362 8.259544444444446 -1.027167695473251
2.185955555555555 8.258949074074074 -1.066508487654321
-2.221318004115227 8.866489094650206 -0.989062448559671
2.221720370370371 8.864912448559670 -0.989347479423868
-2.166904526748971 9.394793209876543 -1.104290637860082
2.167461728395061 9.394793209876543 -1.104529526748971
-2.204071141975309 9.781401234567902 -1.027860048010974
2.238933950617284 9.776335802469138 -0.950437448559671
-2.238564506172840 10.185737037037040 -0.950264609053498
2.204525925925926 10.185737037037040 -1.028180864197531
-2.185561394032922 10.832761728395063 -1.065891958161866
2.203130864197531 10.832761728395063 -1.027751748971194
-2.238594238683128 11.492447530864201 -0.950191460905350
2.204487654320987 11.494980246913583 -1.028334156378601
-2.166963374485597 11.947432716049388 -1.104143930041152
2.167423456790123 11.947432716049388 -1.104682818930041
-2.204071193415638 12.399884019204393 -1.027860082304527
2.238895679012346 12.399884087791499 -0.950590740740741
-2.238564814814815 12.854866666666672 -0.950264814814815
2.204545061728395 12.852334362139922 -1.028104218106996
-2.166904526748971 13.307315843621401 -1.104290637860082
2.167461728395061 13.307315843621401 -1.104529526748971
-2.204071141975309 13.754699176954734 -1.027860048010974
2.238933950617284 13.749634567901238 -0.950437448559671
-2.238564506172840 14.189419753086421 -0.950264609053498
2.204525925925926 14.189419753086421 -1.028180864197531
-2.185561394032922 14.821239711934160 -1.065891958161866
2.203130864197531 14.821239711934160 -1.027751748971194
-2.238594238683128 15.404943415637863 -0.950191460905350
-1.628946886832060 15.486652382288495 -1.015123259637467
-1.167021826361196 15.462384811503721 -1.052963997460559
-0.650888553570339 15.462300000000006 -1.038831631171568
-0.172005802580354 15.462300000000008 -1.042269419590438
0.366619607787305 15.462300000000011 -1.031145696688837
0.856056774126328 15.462300000000008 -1.039818671981191
1.407191768080485 15.469530708733428 -1.093188177153821
1.701457947601208 15.494920552275307 -0.961774269721879
2.204487654320987 15.407475720164612 -1.028334156378601
-2.185517283950618 15.934508830589854 -1.066002006172839
-1.700939436156836 15.796805807041610 -1.022134829389575
1.569217529721080 15.860014106081389 -1.225772645176040
1.720127372787249 15.796252230713957 -0.993285920863544
2.203159567901235 15.934818175582993 -1.027636779835391
-2.238564814814815 16.402677777777782 -0.950264814814815
-1.700821781305115 16.354807980599652 -1.022103938859494
1.569365020576132 16.349129629629630 -1.225924691358025
1.717359439300412 16.345633076131687 -0.998313131572931
2.204545061728395 16.403857613168725 -1.028104218106996
-2.185487834362140 16.799399588477367 -1.066075342935528
-1.701842098765432 16.878193614540468 -1.022850041152263
1.569463580246914 16.879783882030182 -1.225841358024692
1.724736614083219 16.870948270080788 -0.986905780368846
2.203197839506172 16.800579423868317 -1.027483487654321
-2.203229098079561 17.330681755829911 -1.027349508459076
-1.705845230078563 17.364962888140671 -1.014069809203143
1.569365020576132 17.433579835390951 -1.225924691358025
1.719861635802469 17.370391913580253 -0.993101210562415
2.203595884773662 17.330681755829911 -1.027894787379973
-2.212048405349794 17.850016263717421 -1.008115072016461
-1.697356795399388 17.868775229503008 -1.029476150153002
1.569464900548697 17.925406738683130 -1.225843544238683
1.721120936213992 17.876357267115608 -0.993718258199277
2.203837962962963 17.850016323731143 -1.027927983539095
-2.202636867474471 18.420472171734488 -1.027012018461362
-1.702723783114712 18.421936921296297 -1.023009578082133
1.570959777949246 18.466633333333334 -1.227455632716050
1.721770219723692 18.421035964138746 -0.994418155986675
2.202926813747903 18.420538947950011 -1.027692651653711
-2.078302443805337 18.654869075399056 -0.997358476742736
-1.765325169908966 18.654090271319919 -1.071389447383892
1.584762848651120 18.640827206218567 -1.239719815957933
1.859754918654531 18.657874612308493 -1.047340188411104
2.173304263692328 18.646172163672261 -0.960483513583593
-11.454398166528529 21.786409980792744 -1.241235370021843
-11.191513128135551 21.772580394120478 -1.234160580363323
-10.604960386934463 21.782043800288694 -1.238069630085838
-5.974886348337303 21.785978319089093 -1.240525112080730
-5.678222636245856 21.772292460981941 -1.234028573533896
-5.123686019678882 21.781859456899742 -1.238271841417442
5.285590592339721 21.782509862258841 -1.238348242843978
5.883744263130858 21.770933831414919 -1.233869288638612
6.133871640243240 21.787721028334381 -1.241293601948761
10.767949148549974 21.782058359250485 -1.238205028968529
11.407334240005540 21.772400701202702 -1.234059090181413
11.613454530026530 21.789891970360213 -1.242806889518098
-11.984308235897039 22.509882636624951 -1.187586922256999
-11.594404998260224 22.421110161618447 -1.058675756503302
-11.205432307879560 22.362998632938133 -1.098872976712479
-10.599317232417180 22.365414480723530 -1.092840961819102
-10.159120056356223 22.501886845303307 -1.068890074599821
-6.496728305100958 22.509355678869454 -1.174581079987833
-6.093984732440791 22.416767720550883 -1.053181165407793
-5.687109069511207 22.355129089947500 -1.114791553568964
-5.113558374877664 22.368072779785404 -1.088742091031787
-4.679284469232720 22.502632235516579 -1.071903461802451
4.848991462270517 22.502143465643783 -1.060783492878762
5.286325182144266 22.360041755219871 -1.099297100253259
5.893921926576652 22.362638603653465 -1.100770449055956
6.277342482646674 22.422942825297444 -1.057586250227199
6.663789452325102 22.511382403732810 -1.188455969980995
10.091667965599969 22.511997204375540 -1.254095399013351
10.336459963026106 22.500938603350395 -1.050961273443159
10.770142710533444 22.358337347608479 -1.102530338438785
11.409777270818623 22.363477375987841 -1.095924718593931
11.783902599338756 22.433426161738684 -1.058406327554827
12.151229171561120 22.510949268409966 -1.202634580122370
-11.952830121459959 22.601339485596707 -1.225524670244578
-11.630245312473583 22.601427421485820 -1.074720882757830
-11.158766986101524 22.601479629375650 -1.011355872072579
-10.670357765252612 22.601465330813184 -1.018552640662797
-10.219777041611541 22.601399339981008 -1.124041019608314
-6.466468206960671 22.601330626780626 -1.212412194803584
-6.133740173433816 22.601433286442159 -1.066368170495878
-5.657502717859532 22.601480641538007 -1.009070799862398
-5.169257643257508 22.601462837037051 -1.023844785425231
-4.731344655005773 22.601396520919067 -1.130726700143605
4.904064898431935 22.601405581535523 -1.124199037794793
